1 1 1 1 1 1 1 1 1 1 1 1 1 1 1 1 1 1 1 1 1 1 1 1 1 1 1 1 1 1 1 1 1 1 1 1 1 1 1 1 1 1 1 1 1 1 1 1 1 1 1 1 1 1 1 1 1 1 1 1 1 1 1 1 1 1 1 1 1 1 1 1 1 1 1 1 1 1 1 1 1 1 1 1 1 1 1 1 1 1 1 1 1 1 1 1 1 1 1 1 1 1 1 1 1 1 1 1 1 1 1 1 1 1 1 1 1 1 1 1 1 1 1 1 1 1 1 1 1 1 1 1 1 1 1 1 1 1 1 1 1 1 1 1 1 1 1 1 0.350324 0.34997 0.349617 0.349264 0.34891 0.348557 0.348204 0.34785 0.347497 0.347144 0.346791 0.346437 0.346084 0.345731 0.345378 0.345024 0.344671 0.344318 0.343965 0.343826 0.344534 0.345241 0.345948 1 0.370897 0.370556 0.370216 0.369875 0.369535 0.369195 0.368854 0.36901 0.369869 0.370728 0.370852 1 1 1 1 0.36579 0.36545 0.365109 0.364769 0.364428 0.364088 0.363747 0.363407 0.363066 0.362726 0.362385 0.362045 0.361704 0.331953 0.331599 0.331246 0.330893 0.330539 0.330186 0.329833 0.32948 0.329127 0.328773 0.32842 0.328066 0.327713 0.32736 0.327006 0.326653 0.3263 0.326288 0.327234 0.328179 0.354554 0.354213 0.353873 0.353532 0.353192 0.352851 0.352511 0.35217 0.35183 0.351489 0.352624 0.35411 0.350468 0.350127 0.349787 0.349446 0.349106 0.348765 0.348425 0.348084 0.348049 0.348996 0.349943 0.374586 0.374258 0.374685 0.375285 0.375883 0.398979 0.398662 0.398345 0.398027 0.39771 0.397392 0.397075 0.370644 0.370315 0.369987 0.369658 0.369329 0.369001 0.368672 0.368866 0.369813 0.370759 0.393583 0.393265 0.392948 0.392631 0.392313 0.391996 0.391678 0.391361 0.391043 0.390726 0.390409 0.390091 0.389773 0.389456 0.389138 0.388821 0.388503 0.388185 0.388735 0.389681 0.41195 0.411643 0.411336 0.411029 0.410722 0.410415 0.410108 0.4098 0.399768 0.399506 0.399245 0.398984 0.399883 0.400832 0.401781 0.40273 0.403679 0.404628 0.405577 0.406526 0.407475 0.408424 0.409372 0.410321 0.411269 0.412218 0.427369 0.427072 0.426775 0.426477 0.426179 0.425882 0.425585 0.425288 0.42499 0.424693 0.424689 0.425635 0.445877 0.445589 0.445301 0.431014 0.430689 0.430363 0.430247 0.431196 0.432145 0.433094 0.434042 0.434991 0.43594 0.442131 0.441842 0.441554 0.44172 0.442667 0.461605 0.461325 0.461046 0.447544 0.447284 0.447024 0.447327 0.448276 0.449224 0.450173 0.451121 0.458529 0.458249 0.457969 0.45769 0.457807 0.458752 0.476694 0.476422 0.476151 0.475879 0.465014 0.464766 0.46452 0.464406 0.465355 0.466303 0.467252 0.468201 0.469149 0.473163 0.472944 0.473891 0.491199 0.490935 0.490671 0.490728 0.491312 0.491896 0.507477 0.50722 0.489088 0.48473 0.484407 0.484083 0.484331 0.485279 0.486228 0.487177 0.488125 0.489074 0.490023 0.490972 0.53794 0.537942 0.50337 0.503114 0.502857 0.5026 0.502343 0.502086 0.50183 0.502277 0.503223 0.518141 0.517891 0.517641 0.517392 0.517142 0.516892 0.516642 0.516392 0.516142 0.515892 0.515643 0.515393 0.515523 0.516469 0.53093 0.530687 0.530443 0.5302 0.529956 0.529713 0.52947 0.529226 0.528983 0.528739 0.528496 0.528253 0.52877 0.54331 0.543073 0.542836 0.542599 0.543277 0.55693 0.541887 0.54165 0.541412 0.541175 0.540938 0.540701 0.541069 0.542014 0.554848 0.554936 0.555568 0.554153 0.553922 0.553691 0.55346 0.553228 0.552997 0.552766 0.552534 0.553369 0.566282 0.556093 0.555886 0.555679 0.556443 0.557392 0.558341 0.559291 0.564476 0.56425 0.564024 0.564724 0.57718 0.576959 0.576739 0.576518 0.576298 0.571026 0.570765 0.570678 0.571627 0.572576 0.573524 0.574473 0.57542 0.57637 0.577319 0.578268 0.579216 0.580165 0.581115 0.627958 0.627709 0.627461 0.632294 0.632096 0.631899 0.631702 0.631504 0.631307 0.631109 0.630912 0.630715 0.630517 0.63032 0.630123 0.629925 0.629728 0.629531 0.629333 0.629136 0.628939 0.628741 0.622502 0.622254 0.622006 0.621758 0.62151 0.621261 0.621245 0.621444 0.621642 0.621841 0.622039 0.622237 0.622436 0.61809 0.617829 0.617567 0.61812 0.619068 0.620017 0.620966 0.621916 0.622865 0.625278 0.626777 0.62662 0.62666 0.627609 0.628558 0.629506 0.630455 0.633335 0.633795 0.634687 0.634472 0.635198 0.636148 0.637097 0.642288 0.642098 0.641909 0.64231 0.660972 0.66079 0.660608 0.650886 0.650701 0.650515 0.65033 0.650144 0.650827 0.659333 0.659151 0.65897 0.658788 0.658606 0.658424 0.658242 0.658394 0.672889 0.661521 0.661354 0.661188 0.661766 0.662716 0.666031 0.665964 1 1 1 0.670065 0.669909 0.670307 0.671256 0.672204 1 1 1 1 1 0.726763 0.72659 0.726915 0.727767 0.728621 1 1 0.732741 0.732222 0.73207 0.731917 0.731765 0.732304 1 0.737885 0.737735 0.724716 0.724418 0.724249 0.724081 0.723913 0.723745 0.730088 0.723408 0.723239 0.723071 0.722903 0.722735 0.722881 0.723192 0.728868 0.728716 0.728563 0.728411 0.728258 0.728299 0.745114 0.740859 0.740711 0.740563 0.740416 0.720337 0.719496 0.719323 0.719647 0.720596 0.721546 0.722495 0.723443 0.724392 0.72534 0.72629 0.727238 0.732033 0.731883 0.731733 0.732197 1 0.737758 0.735994 0.735855 0.735777 0.736727 1 0.740591 0.740455 0.740523 0.74147 1 1 1 1 1 1 1 0.790172 0.790037 0.790209 0.790071 0.79014 0.790012 0.789884 0.789757 0.789629 0.789502 0.789374 0.789246 0.789119 0.788991 0.788864 0.788736 0.788608 0.788481 0.788353 0.788226 0.788098 0.78797 0.787843 0.787715 0.787588 0.78746 0.787332 0.787205 0.787077 0.78695 0.786822 0.786694 0.786567 0.785914 0.785776 0.785637 0.785499 0.785135 0.785117 0.786067 0.788319 0.788187 0.788914 1 1 1 1 1 1 1 1 1 1 1 1 1 1 1 1 1 1 1 1 1 1 1 1 1 1 1 1 1 1 1 1 1 1 1 1 1 1 1 1 1 1 1 1 1 1 1 1 1 1 1 1 1 1 1 1 1 1 1 1 1 1 1 1 1 1 1 1 1 1 1 1 1 1 1 1 1 1 1 1 1 1 1 1 1 1 1 1 1 1 1 1 1 1 1 1 1 1 1 1 1 1 1 1 1 1 1 1 1 1 1 1 1 1 1 1 1 1 1 1 1 1 1 1 1 1 1 1 1 1 1 1 1 1 1 1 1 1 1 1 1 1 1 1 1 1 1 1 1 1 1 1 1 1 1 1 1 1 1 1 1 1 1 1 1 1 1 1 1 1 1 1 1 1 1 1 1 1 1 1 1 1 1 1 1 1 1 1 1 1 1 1 1 1 1 1 1 1 1 1 1 1 1 1 1 1 1 1 1 1 1 1 1 1 1 1 1 1 1 1 1 1 1 1 1 1 1 1 1 1 1 1 1 1 1 1 1 1 1 1 1 1 1 1 1 1 1 1 1 1 1 1 1 1 1 1 1 1 1 1 1 1 1 1 1 1 1 1 1 1 1 1 1 1 1 1 1 1 1 1 1 1 1 1 1 1 1 1 1 1 1 1 1 1 1 1 1 1 1 1 1 1 1 1 1 1 1 1 1 1 1 1 1 1 1 1
1 1 1 1 1 1 1 1 1 1 1 1 1 1 1 1 1 1 1 1 1 1 1 1 1 1 1 1 1 1 1 1 1 1 1 1 1 1 1 1 1 1 1 1 1 1 1 1 1 1 1 1 1 1 1 1 1 1 1 1 1 1 1 1 1 1 1 1 1 1 1 1 1 1 1 1 1 1 1 1 1 1 1 1 1 1 1 1 1 1 1 1 1 1 1 1 1 1 1 1 1 1 1 1 1 1 1 1 1 1 1 1 1 1 1 1 1 1 1 1 1 1 1 1 1 1 1 1 1 1 1 1 1 1 1 1 1 1 1 1 1 1 1 1 1 1 1 1 0.350193 0.349839 0.349486 0.349132 0.348779 0.348426 0.348072 0.347719 0.347366 0.347013 0.346659 0.346306 0.345953 0.3456 0.345246 0.344893 0.34454 0.344187 0.344445 0.345153 0.34586 1 1 1 0.37077 0.37043 0.370089 0.369749 0.369408 0.369068 0.368728 0.36894 0.369799 0.370658 0.370726 1 1 0.366344 0.366004 0.365663 0.365323 0.364983 0.364642 0.364302 0.363961 0.363621 0.36328 0.36294 0.362599 0.362259 0.361918 0.361578 0.361237 0.331468 0.331115 0.330762 0.330408 0.330055 0.329702 0.329348 0.328995 0.328642 0.328288 0.327935 0.327582 0.327228 0.326875 0.326522 0.326168 0.326211 0.327157 0.328103 0.354427 0.354087 0.353746 0.353406 0.353065 0.352725 0.352384 0.352044 0.351703 0.351362 0.351022 0.350682 0.351232 0.350001 0.34966 0.34932 0.348979 0.348639 0.348298 0.347958 0.347972 0.348919 0.349866 0.375851 0.37645 0.399814 0.399496 0.399179 0.398861 0.398544 0.398227 0.397909 0.397592 0.397274 0.396957 0.370522 0.370193 0.369864 0.369536 0.369207 0.368878 0.36855 0.36879 0.369736 0.370682 0.393465 0.393147 0.39283 0.392513 0.392195 0.391878 0.39156 0.391243 0.390925 0.390608 0.390291 0.389972 0.389655 0.389338 0.38902 0.388703 0.388385 0.388068 0.388657 0.389604 0.411836 0.411529 0.411222 0.410915 0.410607 0.4103 0.409993 0.409686 0.409379 0.400742 0.400494 0.400246 0.399998 0.400754 0.401703 0.402652 0.403601 0.40455 0.405499 0.406448 0.407397 0.408346 0.409295 0.410244 0.411192 0.412141 0.427259 0.426961 0.426664 0.426366 0.426069 0.425772 0.425474 0.425177 0.42488 0.424583 0.424612 0.425559 0.44577 0.445482 0.445193 0.430201 0.429876 0.42955 0.43017 0.431119 0.432068 0.433017 0.433965 0.434914 0.442312 0.442023 0.441735 0.441447 0.441644 0.442591 0.461501 0.461221 0.460942 0.447999 0.447739 0.44748 0.44725 0.448199 0.449147 0.450096 0.451045 0.451993 0.458145 0.457866 0.457586 0.45773 0.458676 0.476593 0.476321 0.47605 0.475778 0.475507 0.465311 0.465064 0.464817 0.465277 0.466226 0.467175 0.468124 0.469072 0.473063 0.472867 0.473814 0.491101 0.49168 0.492264 0.508152 0.507895 0.507638 0.507382 0.507125 0.483597 0.483273 0.482949 0.483305 0.484254 0.485202 0.486151 0.4871 0.488049 0.488997 0.489947 0.552735 0.553594 1 0.503275 0.503018 0.502762 0.502505 0.502248 0.501991 0.501734 0.5022 0.503146 0.518048 0.517798 0.517549 0.517299 0.517049 0.516799 0.516549 0.516299 0.516049 0.5158 0.51555 0.5153 0.515446 0.516393 0.53084 0.530596 0.530353 0.530109 0.529866 0.529623 0.529379 0.529136 0.528892 0.528649 0.528406 0.528162 0.528693 0.543222 0.542985 0.542748 0.542511 0.542273 0.542036 0.541799 0.541562 0.541324 0.541087 0.54085 0.540613 0.540992 0.541938 0.555948 0.58217 0.568457 0.554067 0.553836 0.553605 0.553374 0.553142 0.552911 0.55268 0.552448 0.553293 0.566198 0.556538 0.556331 0.556124 0.556366 0.557315 0.558264 0.559214 0.564392 0.564166 0.56394 0.564647 0.577098 0.576877 0.576657 0.576436 0.570312 0.570051 0.56979 0.570601 0.57155 0.572499 0.573447 0.574396 0.576065 0.576293 0.577242 0.578191 0.57914 0.580088 0.581037 0.581987 0.626484 0.626236 0.625988 0.632023 0.631826 0.631628 0.631431 0.631234 0.631036 0.630839 0.630642 0.630444 0.630247 0.63005 0.629852 0.629655 0.629457 0.62926 0.622021 0.621773 0.621525 0.621277 0.621029 0.62078 0.620725 0.620923 0.621121 0.62132 0.621518 0.621717 0.621915 0.622114 0.6263 0.616821 0.61656 0.616298 0.617094 0.618043 0.618991 0.61994 0.620889 0.621838 0.624327 0.625201 0.634616 0.62749 0.627333 0.627532 0.628481 0.629429 0.630378 0.631327 0.633718 0.634064 0.634172 0.635122 0.636071 0.642407 0.642217 0.642028 0.641838 0.642233 0.660904 0.660722 0.66054 0.650818 0.650632 0.650446 0.650261 0.650075 0.65075 0.659266 0.659084 0.658902 0.65872 0.658538 0.658356 0.658174 0.658318 0.673285 0.673127 0.661624 0.661457 0.661689 0.662638 0.663588 0.665887 1 1 1 0.670506 0.67035 0.67023 0.671179 0.672127 1 1 1 1 1 0.726262 0.726089 0.726846 0.727698 0.72855 0.729403 0.730256 0.732433 0.732166 0.732013 0.731861 0.731708 0.732235 1 0.737829 0.737679 0.737529 0.7252 0.725032 0.724864 0.724696 0.724528 0.723535 0.723844 0.724025 0.723857 0.723689 0.723521 0.72304 0.728964 0.728811 0.721821 0.721666 0.721511 0.721356 0.721201 0.721046 0.720891 0.720736 0.720116 0.71994 0.719765 0.718995 0.718822 0.71957 0.720519 0.721469 0.722418 0.723367 0.724315 0.725263 0.726212 0.727161 0.731978 0.731828 0.731678 0.73212 1 0.737703 0.737555 0.736016 0.735876 0.73665 1 0.740809 0.740674 0.740539 0.741394 1 1 1 1 1 1 1 0.789914 0.789915 0.789887 0.789749 0.78961 0.789965 0.789837 0.789709 0.789582 0.789454 0.789327 0.789199 0.789071 0.788944 0.788816 0.788689 0.788561 0.788433 0.788306 0.788178 0.788051 0.787923 0.787795 0.787668 0.78754 0.787413 0.787285 0.787157 0.78703 0.786902 0.786775 0.786647 0.785731 0.785593 0.785454 0.785316 0.785013 0.784877 0.78504 0.78599 0.788126 0.787994 0.788838 1 1 1 1 1 1 1 1 1 1 1 1 1 1 1 1 1 1 1 1 1 1 1 1 1 1 1 1 1 1 1 1 1 1 1 1 1 1 1 1 1 1 1 1 1 1 1 1 1 1 1 1 1 1 1 1 1 1 1 1 1 1 1 1 1 1 1 1 1 1 1 1 1 1 1 1 1 1 1 1 1 1 1 1 1 1 1 1 1 1 1 1 1 1 1 1 1 1 1 1 1 1 1 1 1 1 1 1 1 1 1 1 1 1 1 1 1 1 1 1 1 1 1 1 1 1 1 1 1 1 1 1 1 1 1 1 1 1 1 1 1 1 1 1 1 1 1 1 1 1 1 1 1 1 1 1 1 1 1 1 1 1 1 1 1 1 1 1 1 1 1 1 1 1 1 1 1 1 1 1 1 1 1 1 1 1 1 1 1 1 1 1 1 1 1 1 1 1 1 1 1 1 1 1 1 1 1 1 1 1 1 1 1 1 1 1 1 1 1 1 1 1 1 1 1 1 1 1 1 1 1 1 1 1 1 1 1 1 1 1 1 1 1 1 1 1 1 1 1 1 1 1 1 1 1 1 1 1 1 1 1 1 1 1 1 1 1 1 1 1 1 1 1 1 1 1 1 1 1 1 1 1 1 1 1 1 1 1 1 1 1 1 1 1 1 1 1 1 1 1 1 1 1 1 1 1 1 1 1 1 1 1 1 1 1 1
1 1 1 1 1 1 1 1 1 1 1 1 1 1 1 1 1 1 1 1 1 1 1 1 1 1 1 1 1 1 1 1 1 1 1 1 1 1 1 1 1 1 1 1 1 1 1 1 1 1 1 1 1 1 1 1 1 1 1 1 1 1 1 1 1 1 1 1 1 1 1 1 1 1 1 1 1 1 1 1 1 1 1 1 1 1 1 1 1 1 1 1 1 1 1 1 1 1 1 1 1 1 1 1 1 1 1 1 1 1 1 1 1 1 1 1 1 1 1 1 1 1 1 1 1 1 1 1 1 1 1 1 1 1 1 1 1 1 1 1 1 1 1 1 1 1 1 1 0.350061 0.349708 0.349355 0.349001 0.348648 0.348295 0.347941 0.347588 0.347235 0.346881 0.346528 0.346175 0.345822 0.345468 0.345115 0.344762 0.344409 0.345064 0.345771 0.346479 1 1 1 1 0.370644 0.370303 0.369963 0.369622 0.369282 0.368942 0.368601 0.36887 0.369729 0.370589 0.3706 0.366899 0.366558 0.366218 0.365877 0.365537 0.365196 0.364856 0.364515 0.364175 0.363834 0.363494 0.363153 0.362813 0.362473 0.362132 0.361792 0.361451 0.361602 0.362258 0.362914 0.33063 0.330277 0.329924 0.32957 0.329217 0.328864 0.328511 0.328157 0.327804 0.32745 0.327097 0.326744 0.32639 0.326037 0.326134 0.32708 0.328026 0.326478 0.326478 0.326478 0.326478 0.326478 0.326478 0.325414 0.326371 0.351576 0.351236 0.350895 0.350555 0.350214 0.349874 0.349534 0.349193 0.348853 0.348512 0.348172 0.347832 0.347896 0.348842 0.349789 0.374729 0.376653 0.399696 0.399378 0.399061 0.398743 0.398426 0.398109 0.397791 0.397474 0.397156 0.396839 0.370399 0.370071 0.369742 0.369414 0.369085 0.368756 0.368428 0.368713 0.369659 0.370605 0.393347 0.39303 0.392712 0.392395 0.392077 0.39176 0.391442 0.391125 0.390808 0.39049 0.390173 0.389854 0.389537 0.389219 0.388902 0.388585 0.388267 0.38795 0.388581 0.389528 0.411722 0.411415 0.411107 0.4108 0.410493 0.410186 0.409879 0.409572 0.409265 0.408958 0.401762 0.401514 0.401266 0.401018 0.401627 0.402576 0.403524 0.404473 0.405422 0.406371 0.40732 0.408268 0.409218 0.410167 0.411115 0.427445 0.427818 0.428317 0.428819 0.448257 0.425958 0.425661 0.425364 0.425067 0.424769 0.424472 0.424535 0.425484 0.445663 0.445375 0.429714 0.429389 0.429063 0.429145 0.430093 0.431042 0.431991 0.43294 0.433888 0.442493 0.442205 0.441916 0.441628 0.44134 0.441567 0.442515 0.461397 0.461118 0.460838 0.460558 0.448195 0.447935 0.447675 0.448122 0.449071 0.450019 0.450968 0.451916 0.458041 0.457762 0.457482 0.457653 0.458599 0.476492 0.47622 0.475949 0.475677 0.475406 0.465856 0.465609 0.465362 0.4652 0.466149 0.467098 0.468047 0.468996 0.469944 0.472792 0.473738 0.541701 0.541458 0.508313 0.508056 0.5078 0.507543 0.507286 0.482463 0.482138 0.481815 0.482279 0.483228 0.484177 0.485125 0.486074 0.487023 0.487972 0.488921 0.504206 0.504166 0.520704 0.520454 0.50318 0.502923 0.502666 0.502409 0.502153 0.501896 0.501639 0.502123 0.50307 0.517956 0.517706 0.517456 0.517206 0.516956 0.516706 0.516456 0.516207 0.515957 0.515707 0.515457 0.515207 0.515369 0.516316 0.530749 0.530506 0.530262 0.530019 0.529776 0.529532 0.529289 0.529045 0.528802 0.528559 0.528315 0.528072 0.528617 0.543134 0.542897 0.54266 0.542422 0.542185 0.541948 0.541711 0.541473 0.541236 0.540999 0.540762 0.540524 0.540915 0.541861 0.582309 0.582088 0.581868 0.553982 0.55375 0.553519 0.553288 0.553056 0.552825 0.552594 0.552362 0.553216 0.566115 0.565889 0.556776 0.556569 0.556362 0.557238 0.558187 0.559137 0.560086 0.564082 0.563857 0.564571 0.577016 0.576795 0.576575 0.569598 0.569337 0.569076 0.569575 0.570524 0.571473 0.572422 0.57337 0.575923 0.576975 0.576797 0.577166 0.578114 0.579063 0.580011 0.58096 0.581909 0.582859 0.625011 0.624763 0.624515 0.631752 0.631555 0.631358 0.63116 0.630963 0.630766 0.630568 0.630371 0.630174 0.631094 0.640342 0.621539 0.621291 0.621043 0.620796 0.620548 0.620299 0.620204 0.620402 0.620601 0.620799 0.620998 0.621196 0.621395 0.621593 0.626819 0.626621 0.626424 0.615552 0.61529 0.61512 0.616069 0.617018 0.617966 0.618914 0.619863 0.620812 0.624451 0.624253 0.625125 0.634544 0.62836 0.628203 0.628046 0.628404 0.629352 0.630301 0.63125 0.632199 0.633439 0.634096 0.635045 0.635994 0.642336 0.642147 0.641958 0.641768 0.642156 0.670005 0.669827 0.669648 0.650748 0.650563 0.650377 0.650192 0.650006 0.650673 0.659198 0.659016 0.658834 0.658652 0.65847 0.658288 0.658106 0.658241 0.673681 1 0.661893 0.661726 0.661613 0.662561 0.663511 0.66581 1 1 1 1 0.67079 0.670634 0.671102 0.67205 0.672999 1 1 1 0.725934 0.725761 0.725924 0.726042 0.725866 0.728481 0.729334 0.725638 0.725483 0.725328 0.725173 0.725018 0.724863 0.724708 0.724553 0.724398 0.724243 0.724088 0.723933 0.723778 0.723623 0.723468 0.723313 0.723158 0.723003 0.722848 0.722693 0.722538 0.722383 0.722228 0.722073 0.721918 0.721763 0.721608 0.721453 0.721298 0.721143 0.720988 0.719894 0.719719 0.719544 0.719369 0.718668 0.718495 0.718545 0.719494 0.720442 0.721392 0.722341 0.72329 0.724239 0.725187 0.726135 0.732072 0.731922 0.731772 0.731622 0.732043 1 0.737648 0.7375 0.736177 0.736038 0.736572 1 1 0.740893 0.740757 0.741317 0.742265 1 1 1 1 1 0.789792 0.789656 0.789704 0.789566 0.789427 0.789289 0.789917 0.78979 0.789662 0.789534 0.789407 0.789279 0.789152 0.789024 0.788896 0.788769 0.788641 0.788514 0.788386 0.788258 0.788131 0.788003 0.787876 0.787748 0.78762 0.787493 0.787365 0.787238 0.78711 0.786982 0.786855 0.786727 0.785548 0.785409 0.785271 0.785133 0.784994 0.784736 0.784597 0.784964 0.79037 0.787932 0.787811 0.788761 1 1 1 1 1 1 1 1 1 1 1 1 1 1 1 1 1 1 1 1 1 1 1 1 1 1 1 1 1 1 1 1 1 1 1 1 1 1 1 1 1 1 1 1 1 1 1 1 1 1 1 1 1 1 1 1 1 1 1 1 1 1 1 1 1 1 1 1 1 1 1 1 1 1 1 1 1 1 1 1 1 1 1 1 1 1 1 1 1 1 1 1 1 1 1 1 1 1 1 1 1 1 1 1 1 1 1 1 1 1 1 1 1 1 1 1 1 1 1 1 1 1 1 1 1 1 1 1 1 1 1 1 1 1 1 1 1 1 1 1 1 1 1 1 1 1 1 1 1 1 1 1 1 1 1 1 1 1 1 1 1 1 1 1 1 1 1 1 1 1 1 1 1 1 1 1 1 1 1 1 1 1 1 1 1 1 1 1 1 1 1 1 1 1 1 1 1 1 1 1 1 1 1 1 1 1 1 1 1 1 1 1 1 1 1 1 1 1 1 1 1 1 1 1 1 1 1 1 1 1 1 1 1 1 1 1 1 1 1 1 1 1 1 1 1 1 1 1 1 1 1 1 1 1 1 1 1 1 1 1 1 1 1 1 1 1 1 1 1 1 1 1 1 1 1 1 1 1 1 1 1 1 1 1 1 1 1 1 1 1 1 1 1 1 1 1 1 1 1 1 1 1 1 1 1 1 1 1 1 1 1 1 1 1 1 1
1 1 1 1 1 1 1 1 1 1 1 1 1 1 1 1 1 1 1 1 1 1 1 1 1 1 1 1 1 1 1 1 1 1 1 1 1 1 1 1 1 1 1 1 1 1 1 1 1 1 1 1 1 1 1 1 1 1 1 1 1 1 1 1 1 1 1 1 1 1 1 1 1 1 1 1 1 1 1 1 1 1 1 1 1 1 1 1 1 1 1 1 1 1 1 1 1 1 1 1 1 1 1 1 1 1 1 1 1 1 1 1 1 1 1 1 1 1 1 1 1 1 1 1 1 1 1 1 1 1 1 1 1 1 1 1 1 1 1 1 1 1 1 1 1 1 1 1 0.34993 0.349577 0.349223 0.34887 0.348517 0.348163 0.34781 0.347457 0.347103 0.34675 0.346397 0.346044 0.34569 0.345337 0.344984 0.344975 0.345683 0.34639 0.347098 1 1 1 1 1 0.370517 0.370177 0.369836 0.369496 0.369155 0.368815 0.368475 0.368801 0.36966 0.367453 0.367113 0.366772 0.366432 0.366091 0.365751 0.36541 0.36507 0.364729 0.364389 0.364048 0.363708 0.363367 0.363027 0.362686 0.362346 0.362005 0.362111 0.333958 0.333958 0.333958 0.333958 0.333958 0.330146 0.329792 0.329439 0.329086 0.328733 0.328379 0.328026 0.327672 0.327319 0.326966 0.326612 0.326259 0.325906 0.326057 0.327003 0.327949 0.333959 0.333959 0.333959 0.333958 0.333958 0.333958 0.325337 0.326294 0.327251 0.328208 0.329165 0.330122 0.331079 0.332036 0.332993 0.33395 0.348726 0.348386 0.348045 0.347705 0.347819 0.348766 0.349712 0.37422 0.373891 0.373563 0.373234 0.374521 0.398625 0.398308 0.39799 0.397673 0.397356 0.397038 0.396721 0.370277 0.369949 0.36962 0.369291 0.368963 0.368634 0.368306 0.368636 0.369582 0.370528 0.393229 0.392912 0.392594 0.392277 0.391959 0.391642 0.391324 0.391007 0.390689 0.390372 0.390055 0.389736 0.389419 0.389101 0.388784 0.388467 0.38815 0.387832 0.388504 0.389451 0.411608 0.411301 0.410993 0.410686 0.410379 0.410072 0.409765 0.409458 0.409151 0.408844 0.408537 0.402782 0.402534 0.402286 0.402038 0.402499 0.403448 0.404397 0.405345 0.406294 0.407243 0.408192 0.409141 0.410089 0.411039 0.449303 0.449015 0.448726 0.448438 0.44815 0.425848 0.425551 0.425253 0.424956 0.424659 0.424362 0.424459 0.425407 0.445556 0.429226 0.428901 0.428576 0.42825 0.429068 0.430016 0.430965 0.431914 0.432863 0.433811 0.442386 0.442097 0.441809 0.441521 0.441233 0.441493 0.442437 0.461293 0.461013 0.460734 0.460454 0.44865 0.44839 0.44813 0.448045 0.448994 0.449942 0.450891 0.45184 0.457937 0.457658 0.457378 0.457576 0.458522 0.476391 0.47612 0.475848 0.475576 0.475305 0.475033 0.466154 0.465907 0.46566 0.466072 0.467021 0.46797 0.468919 0.469867 0.472715 0.473662 0.525608 0.525358 0.525109 0.524859 0.507704 0.507448 0.481329 0.481005 0.480681 0.481253 0.482202 0.483151 0.4841 0.485048 0.485997 0.486946 0.487895 0.504368 0.504111 0.503854 0.503597 0.503341 0.503084 0.502828 0.502571 0.502314 0.502057 0.5018 0.501543 0.502047 0.502993 0.517863 0.517613 0.517363 0.517113 0.516864 0.516614 0.516364 0.516114 0.515864 0.515614 0.515364 0.515114 0.515292 0.516239 0.530659 0.530415 0.530172 0.529929 0.529685 0.529455 0.529198 0.528955 0.528711 0.528468 0.528225 0.527981 0.52854 0.543046 0.542809 0.542571 0.542334 0.542097 0.54186 0.541622 0.541385 0.541148 0.540911 0.540673 0.540436 0.540838 0.541784 0.582227 0.582006 0.581786 0.581565 0.553664 0.553433 0.553202 0.55297 0.552739 0.552508 0.552276 0.553139 0.566031 0.565805 0.557298 0.557096 0.556894 0.557161 0.55811 0.559059 0.560009 0.560958 0.563773 0.564493 0.576934 0.576714 0.568884 0.568623 0.568363 0.568549 0.569498 0.570447 0.571396 0.572345 0.573294 0.575846 0.57811 0.577945 0.57778 0.578037 0.578986 0.579934 0.580883 0.581832 0.582781 0.583731 0.58468 0.62329 0.623042 0.631482 0.631285 0.631087 0.63089 0.630692 0.630495 0.630298 0.621058 0.62081 0.620562 0.620314 0.620066 0.619818 0.619683 0.619881 0.62008 0.620278 0.620477 0.620675 0.620874 0.621072 0.627337 0.62714 0.626943 0.626745 0.626548 0.614283 0.614021 0.614094 0.615043 0.615992 0.616941 0.61789 0.618838 0.619786 0.624575 0.624377 0.62418 0.625048 0.634472 0.634279 0.629073 0.628916 0.62876 0.629275 0.630224 0.631173 0.632122 0.633071 0.63402 0.634968 0.635918 0.642266 0.642077 0.641887 0.641698 0.642079 0.669939 0.66976 0.669582 0.65068 0.650494 0.650308 0.650123 0.649937 0.650597 0.659131 0.658949 0.658767 0.658585 0.658402 0.658221 0.658039 0.658164 0.674077 1 0.662162 0.661995 0.661829 0.662484 0.663434 0.665733 1 1 1 1 0.67123 0.671075 0.671024 0.671973 0.672922 1 1 1 0.725434 0.725261 0.725645 0.72547 0.725294 0.725118 0.725735 0.72558 0.725425 0.72527 0.725115 0.72496 0.724805 0.72465 0.724495 0.72434 0.724185 0.72403 0.723875 0.72372 0.723565 0.72341 0.723255 0.7231 0.722945 0.72279 0.722635 0.72248 0.722325 0.72217 0.722016 0.721861 0.721706 0.721551 0.721396 0.721241 0.719673 0.719498 0.719323 0.719147 0.718972 0.718797 0.718167 0.717994 0.718468 0.719417 0.720689 0.721315 0.722264 0.723213 0.724162 0.725111 0.726058 0.732016 0.731866 0.731716 0.731566 0.731967 1 0.737593 0.737445 0.736338 0.736199 0.736495 0.737445 1 0.741111 0.740976 0.74124 0.742188 1 1 1 1 1 0.789533 0.789398 0.789457 0.789244 0.789105 0.788967 0.788828 0.789742 0.789615 0.789487 0.789359 0.789232 0.789104 0.788977 0.788849 0.788721 0.788627 0.788628 0.78863 0.788632 0.788634 1 1 1 1 1 1 1 1 1 1 0.785365 0.785226 0.785088 0.78495 0.784838 0.78512 0.784408 0.784269 0.784887 0.790323 0.787739 0.787734 0.788684 1 1 1 1 1 1 1 1 1 1 1 1 1 1 1 1 1 1 1 1 1 1 1 1 1 1 1 1 1 1 1 1 1 1 1 1 1 1 1 1 1 1 1 1 1 1 1 1 1 1 1 1 1 1 1 1 1 1 1 1 1 1 1 1 1 1 1 1 1 1 1 1 1 1 1 1 1 1 1 1 1 1 1 1 1 1 1 1 1 1 1 1 1 1 1 1 1 1 1 1 1 1 1 1 1 1 1 1 1 1 1 1 1 1 1 1 1 1 1 1 1 1 1 1 1 1 1 1 1 1 1 1 1 1 1 1 1 1 1 1 1 1 1 1 1 1 1 1 1 1 1 1 1 1 1 1 1 1 1 1 1 1 1 1 1 1 1 1 1 1 1 1 1 1 1 1 1 1 1 1 1 1 1 1 1 1 1 1 1 1 1 1 1 1 1 1 1 1 1 1 1 1 1 1 1 1 1 1 1 1 1 1 1 1 1 1 1 1 1 1 1 1 1 1 1 1 1 1 1 1 1 1 1 1 1 1 1 1 1 1 1 1 1 1 1 1 1 1 1 1 1 1 1 1 1 1 1 1 1 1 1 1 1 1 1 1 1 1 1 1 1 1 1 1 1 1 1 1 1 1 1 1 1 1 1 1 1 1 1 1 1 1 1 1 1 1 1 1 1 1 1 1 1 1 1 1 1 1 1 1 1 1 1 1 1 1
1 1 1 1 1 1 1 1 1 1 1 1 1 1 1 1 1 1 1 1 1 1 1 1 1 1 1 1 1 1 1 1 1 1 1 1 1 1 1 1 1 1 1 1 1 1 1 1 1 1 1 1 1 1 1 1 1 1 1 1 1 1 1 1 1 1 1 1 1 1 1 1 1 1 1 1 1 1 1 1 1 1 1 1 1 1 1 1 1 1 1 1 1 1 1 1 1 1 1 1 1 1 1 1 1 1 1 1 1 1 1 1 1 1 1 1 1 1 1 1 1 1 1 1 1 1 1 1 1 1 1 1 1 1 1 1 1 1 1 1 1 1 1 1 1 1 1 1 0.349799 0.349445 0.349092 0.348739 0.348385 0.348032 0.347679 0.347325 0.346972 0.346619 0.346266 0.345912 0.345559 0.345206 0.345594 0.346302 0.347009 1 1 1 1 1 1 1 0.37039 0.37005 0.36971 0.369369 0.369029 0.341437 0.341437 0.341437 0.341438 0.341438 0.341438 0.341438 0.341438 0.341438 0.341438 0.341438 0.341438 0.341438 0.341438 0.341438 0.341438 0.341438 0.341438 0.341438 0.341438 0.341438 0.341438 0.341438 0.341438 0.341438 0.341438 0.341439 0.341439 0.341439 0.329308 0.328954 0.328601 0.328248 0.327894 0.327541 0.327188 0.326834 0.326481 0.326128 0.325775 0.32598 0.326926 0.327872 0.341439 0.341439 0.341438 0.341438 0.341438 0.341437 0.325259 0.326216 0.327173 0.32813 0.329087 0.330044 0.331001 0.331958 0.332915 0.333872 0.334829 0.335786 0.336743 0.3377 0.338657 0.339614 0.340571 0.374098 0.373769 0.373441 0.373112 0.372783 0.372455 0.372126 0.372389 0.374314 0.397237 0.39692 0.396603 0.370155 0.369826 0.369498 0.369169 0.368841 0.368512 0.368184 0.36856 0.369506 0.393428 0.393111 0.392793 0.392476 0.392158 0.391841 0.391524 0.391206 0.390889 0.390571 0.390254 0.389936 0.389618 0.389301 0.388984 0.388666 0.388349 0.388032 0.387714 0.388427 0.389375 0.411493 0.411186 0.410879 0.410572 0.410265 0.409958 0.409651 0.409344 0.409037 0.40873 0.408422 0.408116 0.407809 0.403554 0.403306 0.403058 0.403371 0.40432 0.405269 0.406218 0.407166 0.408115 0.409064 0.410013 0.410963 0.411912 0.426927 0.426629 0.448331 0.448043 0.425738 0.42544 0.425143 0.424846 0.424549 0.424251 0.424382 0.425329 0.445449 0.428414 0.428088 0.427763 0.428042 0.428991 0.429939 0.430888 0.431837 0.432786 0.442566 0.442278 0.44199 0.441702 0.441413 0.441125 0.441416 0.442362 0.461189 0.46091 0.46063 0.46035 0.460071 0.448846 0.448586 0.448326 0.448917 0.449866 0.450814 0.451763 0.452711 0.457554 0.457274 0.457499 0.458444 0.47629 0.476019 0.475747 0.475476 0.475204 0.474933 0.466698 0.466451 0.466205 0.465995 0.466944 0.467893 0.468842 0.469791 0.470739 0.473585 0.525515 0.525266 0.525016 0.524766 0.524516 0.480196 0.479871 0.479547 0.480227 0.481176 0.482125 0.483074 0.484023 0.484971 0.48592 0.486869 0.504529 0.504272 0.504016 0.503759 0.503502 0.503245 0.502989 0.502732 0.502475 0.502218 0.501962 0.501705 0.501448 0.50197 0.502916 0.51777 0.51752 0.517271 0.517021 0.516771 0.516521 0.516271 0.516021 0.515771 0.515521 0.515272 0.515022 0.515215 0.516162 0.530568 0.530325 0.530082 0.529838 0.530074 0.530782 0.529108 0.528864 0.528621 0.528378 0.528134 0.527891 0.528463 0.542958 0.54272 0.542483 0.542246 0.542009 0.541771 0.541534 0.541297 0.54106 0.540823 0.540585 0.540348 0.540762 0.568883 0.568657 0.568431 0.568205 0.567979 0.553578 0.553347 0.553116 0.552884 0.552653 0.552422 0.55219 0.553062 0.565947 0.565721 0.565495 0.557665 0.557464 0.557262 0.558033 0.558982 0.559932 0.560881 0.563689 0.564416 0.577544 0.578107 0.567909 0.567649 0.567523 0.568472 0.569421 0.57037 0.571319 0.572268 0.574825 0.57577 0.633973 0.579183 0.579018 0.578853 0.578909 0.579858 0.580806 0.581754 0.582704 0.583654 0.584603 0.585552 0.5865 0.621569 0.62132 0.631014 0.630817 0.620577 0.620329 0.620081 0.619833 0.619585 0.619337 0.619162 0.619361 0.619559 0.619758 0.619956 0.620155 0.620353 0.620552 0.62075 0.627659 0.627461 0.627264 0.627067 0.615498 0.613106 0.612807 0.612507 0.613069 0.614018 0.614966 0.615915 0.616864 0.617813 0.618761 0.624699 0.624501 0.624304 0.624107 0.624972 0.6344 0.634207 0.634014 0.629786 0.629629 0.629473 0.630147 0.631096 0.632044 0.632994 0.633943 0.634892 0.642385 0.642196 0.642006 0.641817 0.641627 0.642003 0.669872 0.669694 0.669515 0.650611 0.650425 0.650239 0.650054 0.649868 0.65052 0.659063 0.658881 0.658699 0.658517 0.658335 0.658153 0.657971 0.658087 1 1 1 0.662265 0.662098 0.662407 0.663357 0.665656 1 1 1 1 0.671671 0.671515 0.671359 0.671896 0.672845 0.673793 1 0.725106 0.724933 0.724934 0.725073 0.724897 0.724722 0.724546 0.72437 0.725523 0.725368 0.725213 0.725057 0.724903 0.724747 0.724593 0.724438 0.724283 0.724128 0.723973 0.723818 0.723663 0.723508 0.723353 0.723198 0.723043 0.722888 0.722733 0.722578 0.722423 0.722268 0.722113 0.721958 0.721803 0.721648 0.721493 0.721338 0.719277 0.719101 0.718926 0.718751 0.718575 0.71866 0.71784 0.717667 0.717493 0.718392 0.71934 0.733011 0.726202 0.724276 0.724263 0.72425 0.725032 0.725981 0.731961 0.731811 0.73166 0.73151 0.73189 1 0.737538 0.73739 0.736499 0.73636 0.736418 0.737368 0.738317 0.739266 0.740215 0.741164 0.742112 1 1 1 1 1 0.789216 0.789078 0.789708 0.788922 0.788784 0.788645 0.788506 0.788368 0.789567 0.78944 0.789312 1 0.793801 0.793675 0.79355 0.793424 0.793298 0.793452 1 1 1 1 1 1 1 1 1 1 1 0.786888 0.785181 0.785043 0.784905 0.784766 0.7847 0.784983 0.785994 0.784081 0.783942 0.784811 0.787678 0.787546 0.787657 0.789899 1 1 1 1 1 1 1 1 1 1 1 1 1 1 1 1 1 1 1 1 1 1 1 1 1 1 1 1 1 1 1 1 1 1 1 1 1 1 1 1 1 1 1 1 1 1 1 1 1 1 1 1 1 1 1 1 1 1 1 1 1 1 1 1 1 1 1 1 1 1 1 1 1 1 1 1 1 1 1 1 1 1 1 1 1 1 1 1 1 1 1 1 1 1 1 1 1 1 1 1 1 1 1 1 1 1 1 1 1 1 1 1 1 1 1 1 1 1 1 1 1 1 1 1 1 1 1 1 1 1 1 1 1 1 1 1 1 1 1 1 1 1 1 1 1 1 1 1 1 1 1 1 1 1 1 1 1 1 1 1 1 1 1 1 1 1 1 1 1 1 1 1 1 1 1 1 1 1 1 1 1 1 1 1 1 1 1 1 1 1 1 1 1 1 1 1 1 1 1 1 1 1 1 1 1 1 1 1 1 1 1 1 1 1 1 1 1 1 1 1 1 1 1 1 1 1 1 1 1 1 1 1 1 1 1 1 1 1 1 1 1 1 1 1 1 1 1 1 1 1 1 1 1 1 1 1 1 1 1 1 1 1 1 1 1 1 1 1 1 1 1 1 1 1 1 1 1 1 1 1 1 1 1 1 1 1 1 1 1 1 1 1 1 1 1 1 1 1 1 1 1 1 1 1 1 1 1 1 1 1 1 1 1 1 1 1
1 1 1 1 1 1 1 1 1 1 1 1 1 1 1 1 1 1 1 1 1 1 1 1 1 1 1 1 1 1 1 1 1 1 1 1 1 1 1 1 1 1 1 1 1 1 1 1 1 1 1 1 1 1 1 1 1 1 1 1 1 1 1 1 1 1 1 1 1 1 1 1 1 1 1 1 1 1 1 1 1 1 1 1 1 1 1 1 1 1 1 1 1 1 1 1 1 1 1 1 1 1 1 1 1 1 1 1 1 1 1 1 1 1 1 1 1 1 1 1 1 1 1 1 1 1 1 1 1 1 1 1 1 1 1 1 1 1 1 1 1 1 1 1 1 1 1 1 0.349668 0.349314 0.348961 0.348608 0.348254 0.347901 0.347547 0.347194 0.346841 0.346488 0.346134 0.345781 0.345505 0.346213 0.346921 0.347628 0.348917 0.348917 0.348918 0.348918 0.348918 0.348918 0.348918 0.348918 0.348918 0.348918 0.348918 0.348918 0.348918 0.348918 0.348918 0.348918 0.348918 0.348918 0.348918 0.348918 0.348918 0.348918 0.348918 0.348918 0.348918 0.348918 0.348919 0.348919 0.348919 0.348919 0.348919 0.348919 0.348919 0.348919 0.348919 0.348919 0.348919 0.348919 0.348919 0.348919 0.348919 0.348919 0.348919 0.328823 0.32847 0.328117 0.327763 0.32741 0.327056 0.326703 0.32635 0.325997 0.325644 0.325903 0.326849 0.327796 0.348918 0.348918 0.348918 0.348917 0.348917 0.348917 0.325182 0.326139 0.327096 0.328053 0.32901 0.329967 0.330924 0.331881 0.332838 0.333795 0.334752 0.335709 0.336666 0.337623 0.33858 0.339537 0.340494 0.341451 0.342408 0.343365 0.344322 0.345279 0.346236 0.347193 0.34815 0.371347 0.371019 0.37069 0.372182 0.370033 0.369704 0.369376 0.369047 0.368719 0.36839 0.368062 0.368483 0.369429 0.39331 0.392992 0.392675 0.392358 0.39204 0.391723 0.391405 0.391088 0.39077 0.390619 0.391157 0.391696 0.389501 0.389183 0.388866 0.388549 0.388231 0.387914 0.387596 0.388351 0.389297 0.411379 0.411072 0.410765 0.410458 0.410151 0.409844 0.409537 0.40923 0.408923 0.408615 0.408308 0.408001 0.407694 0.407388 0.404574 0.404326 0.404078 0.404243 0.405192 0.406141 0.40709 0.408039 0.408987 0.409936 0.410886 0.411835 0.412784 0.413733 0.426222 0.425925 0.425627 0.42533 0.425032 0.424735 0.424438 0.424141 0.424307 0.425252 0.427926 0.427601 0.427276 0.427016 0.427965 0.428914 0.429862 0.430811 0.43176 0.432709 0.442459 0.442171 0.441883 0.441594 0.441306 0.441018 0.441339 0.442285 0.461085 0.460806 0.460526 0.460246 0.459967 0.449301 0.449041 0.448781 0.44884 0.449789 0.450738 0.451686 0.452635 0.45745 0.45717 0.457423 0.458368 0.476189 0.475918 0.475646 0.475375 0.47587 0.476409 0.493347 0.466996 0.466749 0.466502 0.466867 0.467816 0.468765 0.469714 0.470663 0.473508 0.492065 0.525173 0.524923 0.524673 0.479062 0.478737 0.478412 0.479202 0.48015 0.481099 0.482048 0.482997 0.483946 0.484895 0.485844 0.488645 0.504434 0.504177 0.50392 0.503664 0.503407 0.50315 0.502894 0.502637 0.50238 0.502123 0.501866 0.50161 0.501353 0.501893 0.50284 0.517677 0.517428 0.517178 0.516928 0.516678 0.516428 0.516178 0.515928 0.515678 0.515429 0.515179 0.514929 0.515138 0.516085 0.530478 0.530235 0.529991 0.530693 0.531401 0.559508 0.529018 0.528774 0.528531 0.528287 0.528044 0.527801 0.528386 0.54287 0.542632 0.542395 0.542158 0.54192 0.541683 0.541446 0.541208 0.540971 0.540734 0.540497 0.54026 0.540685 0.568799 0.568573 0.568347 0.568121 0.567895 0.553492 0.553261 0.55303 0.552798 0.552567 0.552336 0.552104 0.552986 0.565863 0.565637 0.565411 0.558235 0.558033 0.557832 0.557956 0.558905 0.559855 0.560804 0.561753 0.564339 0.585449 0.567195 0.566935 0.566674 0.567446 0.568395 0.569344 0.570293 0.571242 0.574786 0.574749 0.575693 0.6339 0.633703 0.633506 0.580091 0.579925 0.579781 0.580729 0.581678 0.582626 0.583576 0.584525 0.585474 0.586423 0.587372 0.622055 0.62049 0.620585 0.620782 0.62098 0.621177 0.621374 0.621572 0.62175 0.619237 0.619436 0.619634 0.619833 0.620031 0.62023 0.628178 0.614839 0.614542 0.614245 0.613948 0.613651 0.611235 0.610938 0.610638 0.611093 0.612042 0.612991 0.613941 0.61489 0.615839 0.616788 0.617736 0.624823 0.624625 0.624428 0.624231 0.624033 0.624895 0.634328 0.634135 0.633942 0.633749 0.630499 0.630343 0.630186 0.631019 0.631967 0.632917 0.633866 0.634815 0.642315 0.642125 0.641936 0.641746 0.641557 0.641926 0.670511 0.677388 0.660269 0.650542 0.650356 0.65017 0.649985 0.649799 0.650443 0.658995 0.658813 0.658631 0.658449 0.658267 0.658085 0.657903 0.658011 1 1 1 0.662534 0.662368 0.66233 0.663279 0.66423 1 1 1 1 1 0.671955 0.6718 0.671819 0.672768 0.673716 1 0.724606 0.724432 0.724865 0.724577 0.724325 0.724149 0.723974 0.723798 0.723622 0.72531 0.725155 0.725 0.724845 0.72469 0.724535 0.72438 0.724225 0.72407 0.723915 0.72376 0.723605 0.72345 0.723295 0.72314 0.722985 0.72283 0.722675 0.72252 0.722365 0.72221 0.722055 0.7219 0.721745 0.721591 0.719056 0.71888 0.718705 0.718529 0.718354 0.718324 0.718551 0.718778 0.71734 0.717166 0.717366 0.718315 0.719263 0.732955 0.726145 0.725992 0.724534 0.724371 0.724955 0.725904 0.731905 0.731755 0.731605 0.731455 0.731813 1 0.737483 0.737335 0.736661 0.736521 0.736381 0.737291 0.73824 0.739189 0.740138 0.741087 0.742035 0.742984 1 1 1 1 0.788889 0.788787 0.789639 0.789348 0.788462 0.788323 0.788185 0.788046 0.78952 0.789392 0.789265 0.789137 0.789105 0.793629 0.793503 0.793377 0.793381 1 1 1 1 1 1 1 1 1 1 1 0.786968 0.784998 0.78486 0.784721 0.784583 0.784563 0.784845 0.790859 0.783893 0.783754 0.783784 0.784734 0.787485 0.787352 0.78758 0.789852 1 1 1 1 1 1 1 1 1 1 1 1 1 1 1 1 1 1 1 1 1 1 1 1 1 1 1 1 1 1 1 1 1 1 1 1 1 1 1 1 1 1 1 1 1 1 1 1 1 1 1 1 1 1 1 1 1 1 1 1 1 1 1 1 1 1 1 1 1 1 1 1 1 1 1 1 1 1 1 1 1 1 1 1 1 1 1 1 1 1 1 1 1 1 1 1 1 1 1 1 1 1 1 1 1 1 1 1 1 1 1 1 1 1 1 1 1 1 1 1 1 1 1 1 1 1 1 1 1 1 1 1 1 1 1 1 1 1 1 1 1 1 1 1 1 1 1 1 1 1 1 1 1 1 1 1 1 1 1 1 1 1 1 1 1 1 1 1 1 1 1 1 1 1 1 1 1 1 1 1 1 1 1 1 1 1 1 1 1 1 1 1 1 1 1 1 1 1 1 1 1 1 1 1 1 1 1 1 1 1 1 1 1 1 1 1 1 1 1 1 1 1 1 1 1 1 1 1 1 1 1 1 1 1 1 1 1 1 1 1 1 1 1 1 1 1 1 1 1 1 1 1 1 1 1 1 1 1 1 1 1 1 1 1 1 1 1 1 1 1 1 1 1 1 1 1 1 1 1 1 1 1 1 1 1 1 1 1 1 1 1 1 1 1 1 1 1 1 1 1 1 1 1 1 1 1 1 1 1 1 1 1 1 1 1 1
1 1 1 1 1 1 1 1 1 1 1 1 1 1 1 1 1 1 1 1 1 1 1 1 1 1 1 1 1 1 1 1 1 1 1 1 1 1 1 1 1 1 1 1 1 1 1 1 1 1 1 1 1 1 1 1 1 1 1 1 1 1 1 1 1 1 1 1 1 1 1 1 1 1 1 1 1 1 1 1 1 1 1 1 1 1 1 1 1 1 1 1 1 1 1 1 1 1 1 1 1 1 1 1 1 1 1 1 1 1 1 1 1 1 1 1 1 1 1 1 1 1 1 1 1 1 1 1 1 1 1 1 1 1 1 1 1 1 1 1 1 1 1 0.353853 0.354695 0.355536 0.356378 0.356397 0.349536 0.349183 0.34883 0.348476 0.348123 0.34777 0.347416 0.347063 0.34671 0.346356 0.346003 0.346125 0.346832 0.347539 0.356398 0.356398 0.356398 0.356398 0.356398 0.356398 0.356398 0.356398 0.356398 0.356398 0.356398 0.356398 0.356398 0.356398 0.356398 0.356399 0.356399 0.356399 0.356399 0.356399 0.356399 0.356399 0.356399 0.356399 0.356399 0.356399 0.356399 0.356399 0.356399 0.356399 0.356399 0.356399 0.356399 0.356399 0.356399 0.356399 0.356399 0.356399 0.3564 0.3564 0.3564 0.3564 0.3564 0.3564 0.3564 0.3564 0.3564 0.327985 0.327632 0.327278 0.326925 0.326572 0.326219 0.325866 0.325512 0.325826 0.326773 0.327719 0.356398 0.356398 0.353113 0.352773 0.352432 0.352092 0.325105 0.326062 0.327019 0.327976 0.328933 0.32989 0.330846 0.331803 0.33276 0.333717 0.334674 0.335631 0.336588 0.337545 0.338502 0.339459 0.340416 0.341373 0.34233 0.343287 0.344244 0.345201 0.346158 0.347115 0.348072 0.349029 0.349986 0.350943 0.3519 0.352857 0.353814 0.354771 0.355728 0.368596 0.368268 0.367939 0.368406 0.369352 0.393192 0.392874 0.392557 0.392239 0.391922 0.391604 0.391956 0.392495 0.393034 0.41495 0.414643 0.414336 0.389383 0.389065 0.388748 0.388431 0.388113 0.387796 0.387478 0.388274 0.38922 0.411265 0.410958 0.410651 0.410344 0.410037 0.40973 0.409423 0.409116 0.408809 0.408502 0.408194 0.407887 0.40758 0.407273 0.406966 0.405594 0.405346 0.405098 0.405116 0.406064 0.407013 0.407962 0.408911 0.40986 0.410809 0.411758 0.412707 0.413656 0.414604 0.425814 0.425517 0.425219 0.424922 0.424625 0.424328 0.42403 0.42423 0.425176 0.427113 0.426788 0.426463 0.426939 0.427888 0.428837 0.429785 0.430734 0.431683 0.445158 0.442352 0.442064 0.441776 0.441487 0.441199 0.440911 0.441262 0.442207 0.460981 0.460702 0.460422 0.460143 0.459863 0.449757 0.449497 0.449237 0.448977 0.449712 0.450661 0.451609 0.452558 0.453507 0.457067 0.457346 0.458291 0.476305 0.476844 0.477384 0.494041 0.493777 0.493513 0.493249 0.467541 0.467294 0.467047 0.4668 0.467739 0.468688 0.469637 0.470586 0.471534 0.49061 0.490346 0.477922 0.477572 0.477223 0.477227 0.478176 0.479125 0.480074 0.481023 0.481972 0.482921 0.48387 0.484818 0.487623 0.488569 0.504338 0.504082 0.503825 0.503568 0.503312 0.503055 0.502798 0.502541 0.502285 0.502028 0.501771 0.501514 0.501257 0.501817 0.502763 0.517585 0.517335 0.517085 0.516835 0.516585 0.516335 0.516085 0.515835 0.515585 0.515336 0.515086 0.514836 0.515062 0.516009 0.530387 0.530605 0.531313 0.559885 0.559654 0.559422 0.528927 0.528683 0.52844 0.528197 0.527953 0.52771 0.52831 0.542781 0.542544 0.542307 0.542069 0.541832 0.541595 0.541357 0.54112 0.540883 0.540646 0.540409 0.540172 0.540609 0.568715 0.568489 0.568263 0.568037 0.567811 0.553406 0.553175 0.552944 0.552712 0.552481 0.55225 0.552018 0.552909 0.565779 0.565553 0.565327 0.565101 0.558603 0.558401 0.5582 0.558829 0.559778 0.560727 0.561676 0.564263 0.566481 0.566221 0.56596 0.56642 0.567369 0.568318 0.569267 0.570216 0.574924 0.574704 0.574672 0.575616 0.633827 0.63363 0.633432 0.633235 0.581163 0.580998 0.580833 0.581601 0.582549 0.583498 0.584447 0.585396 0.586345 0.587294 0.588243 0.589192 0.619672 0.61947 0.619269 0.619067 0.618865 0.618664 0.618462 0.618261 0.618059 0.613883 0.613585 0.613288 0.612991 0.612694 0.612397 0.612409 0.612577 0.612746 0.609067 0.608769 0.609118 0.610067 0.611016 0.611965 0.612914 0.613864 0.614813 0.615762 0.616711 0.624947 0.624749 0.624552 0.624355 0.624157 0.62396 0.624818 0.634257 0.634063 0.63387 0.633677 0.633483 0.631808 0.631592 0.631376 0.631891 0.63284 0.633789 0.652328 0.642244 0.642055 0.641865 0.641676 0.641487 0.641849 0.660566 0.660384 0.660202 0.650473 0.650287 0.650101 0.649916 0.64973 0.650366 0.659152 0.659825 0.658563 0.658382 0.6582 0.658018 0.657836 0.657934 1 1 1 0.662803 0.662637 0.66247 0.663202 0.664152 0.67419 0.674015 0.67384 0.670147 0.669916 0.669844 0.670793 0.671743 0.672691 0.67364 0.674589 0.724105 0.723943 0.724796 0.725182 0.723753 0.723577 0.723401 0.723226 0.72305 0.722874 0.725097 0.724942 0.724787 0.724632 0.724477 0.724322 0.724167 0.724012 0.723857 0.723702 0.723547 0.723472 0.72347 0.723468 0.723467 0.723467 0.73605 0.7359 0.73575 0.7356 0.748661 1 0.718834 0.718659 0.718483 0.718308 0.718133 0.717988 0.718215 0.718442 0.718669 0.720293 0.716725 0.716546 0.71729 0.718238 0.733049 0.732899 0.726088 0.724388 0.724225 0.724062 0.724878 0.738462 0.731849 0.731699 0.731549 0.731399 0.731737 1 0.737428 0.73728 0.737133 0.736682 0.736543 0.737213 0.738163 0.739112 0.740061 0.74101 0.741959 0.742907 1 1 1 0.788701 0.788562 0.788717 0.789571 0.79011 0.788277 0.788002 0.787863 0.787724 0.787586 0.789345 0.789217 0.78909 0.788962 0.788834 0.793456 0.79333 1 1 1 1 1 1 1 1 1 1 1 0.787048 0.784815 0.784677 0.784538 0.7844 0.784425 0.784707 1 1 0.783565 0.783427 0.783707 0.784657 0.787291 0.787159 0.787504 0.789805 1 1 1 1 1 1 1 1 1 1 1 1 1 1 1 1 1 1 1 1 1 1 1 1 1 1 1 1 1 1 1 1 1 1 1 1 1 1 1 1 1 1 1 1 1 1 1 1 1 1 1 1 1 1 1 1 1 1 1 1 1 1 1 1 1 1 1 1 1 1 1 1 1 1 1 1 1 1 1 1 1 1 1 1 1 1 1 1 1 1 1 1 1 1 1 1 1 1 1 1 1 1 1 1 1 1 1 1 1 1 1 1 1 1 1 1 1 1 1 1 1 1 1 1 1 1 1 1 1 1 1 1 1 1 1 1 1 1 1 1 1 1 1 1 1 1 1 1 1 1 1 1 1 1 1 1 1 1 1 1 1 1 1 1 1 1 1 1 1 1 1 1 1 1 1 1 1 1 1 1 1 1 1 1 1 1 1 1 1 1 1 1 1 1 1 1 1 1 1 1 1 1 1 1 1 1 1 1 1 1 1 1 1 1 1 1 1 1 1 1 1 1 1 1 1 1 1 1 1 1 1 1 1 1 1 1 1 1 1 1 1 1 1 1 1 1 1 1 1 1 1 1 1 1 1 1 1 1 1 1 1 1 1 1 1 1 1 1 1 1 1 1 1 1 1 1 1 1 1 1 1 1 1 1 1 1 1 1 1 1 1 1 1 1 1 1 1 1 1 1 1 1 1 1 1 1 1 1 1 1 1 1 1 1 1 1
1 1 1 1 1 1 1 1 1 1 1 1 1 1 1 1 1 1 1 1 1 1 1 1 1 1 1 1 1 1 1 1 1 1 1 1 1 1 1 1 1 1 1 1 1 1 1 1 1 1 1 1 1 1 1 1 1 1 1 1 1 1 1 1 1 1 1 1 1 1 1 1 1 1 1 1 1 1 1 1 1 1 1 1 1 1 1 1 1 1 1 1 1 1 1 1 1 1 1 1 1 1 1 1 1 1 1 1 1 1 1 1 1 1 1 1 1 1 1 1 1 1 1 1 1 1 1 1 1 1 1 1 1 1 1 1 1 1 1 1 1 1 1 0.353785 0.354626 0.355468 0.35631 0.357151 0.349405 0.349052 0.348699 0.348345 0.347992 0.347638 0.347285 0.346932 0.346578 0.346225 0.346743 0.347451 0.348158 0.363878 0.363878 0.363879 0.363879 0.363879 0.363879 0.363879 0.363879 0.363879 0.363879 0.363879 0.363879 0.363879 0.363879 0.363879 0.363879 0.363879 0.363879 0.363879 0.363879 0.363879 0.363879 0.363879 0.363879 0.363879 0.363879 0.36388 0.36388 0.36388 0.36388 0.36388 0.36388 0.36388 0.36388 0.36388 0.36388 0.36388 0.36388 0.36388 0.36388 0.36388 0.36388 0.36388 0.36388 0.36388 0.36388 0.36388 0.36388 0.36388 0.36388 0.363881 0.36388 0.36388 0.36388 0.363879 0.363879 0.363879 0.363878 0.363878 0.363878 0.363877 0.363877 0.363877 0.352306 0.32407 0.325027 0.325984 0.326941 0.327898 0.328855 0.329812 0.330769 0.331726 0.332683 0.33364 0.334597 0.335554 0.336511 0.337468 0.338425 0.339382 0.340339 0.341296 0.342253 0.343209 0.344166 0.345123 0.346081 0.347038 0.347995 0.348952 0.349909 0.350866 0.351823 0.35278 0.353737 0.354694 0.355651 0.356608 0.357565 0.358522 0.359479 0.360436 0.361393 0.36235 0.363307 0.393294 0.393833 0.394371 0.415757 0.41545 0.415143 0.414836 0.414529 0.414222 0.389265 0.388947 0.38863 0.388313 0.387995 0.387678 0.38736 0.388198 0.389143 0.411151 0.410844 0.410537 0.41023 0.409923 0.409616 0.409309 0.409002 0.408695 0.408388 0.40808 0.407773 0.407466 0.407159 0.406852 0.406545 0.406238 0.406176 0.406119 0.405988 0.406937 0.407885 0.408834 0.409783 0.410733 0.411681 0.41263 0.413579 0.414527 0.415476 0.416425 0.425109 0.424812 0.424514 0.424217 0.423919 0.424154 0.4251 0.426301 0.425976 0.425913 0.426862 0.427811 0.42876 0.429708 0.430657 0.431606 0.463394 0.442245 0.441957 0.441669 0.44138 0.441092 0.440804 0.441185 0.44213 0.460877 0.460598 0.460318 0.460039 0.459759 0.460253 0.449952 0.449692 0.449432 0.449635 0.450584 0.451533 0.452481 0.45343 0.456962 0.45727 0.458215 0.494734 0.494471 0.494207 0.493943 0.493679 0.493415 0.493151 0.492887 0.467839 0.467592 0.467345 0.467662 0.468611 0.46956 0.470509 0.471457 0.490512 0.47622 0.47587 0.475521 0.476202 0.47715 0.4781 0.479049 0.479997 0.480946 0.481895 0.482844 0.483793 0.487081 0.487546 0.488492 0.504243 0.503986 0.50373 0.503473 0.503216 0.502959 0.502703 0.502446 0.502189 0.501932 0.501675 0.501419 0.501162 0.50174 0.502686 0.517492 0.517242 0.516992 0.516742 0.516492 0.516242 0.515992 0.515742 0.515493 0.515243 0.514993 0.514743 0.514985 0.515932 0.531224 0.531932 0.545303 0.545066 0.544828 0.544591 0.528837 0.528593 0.52835 0.528106 0.527863 0.52762 0.528233 0.542693 0.542456 0.542219 0.541981 0.541744 0.541507 0.541269 0.541032 0.540795 0.540558 0.54032 0.540083 0.540534 0.568631 0.568405 0.568179 0.567953 0.567727 0.55332 0.553089 0.552858 0.552626 0.552395 0.552164 0.551932 0.552832 0.565695 0.565469 0.565243 0.565017 0.559173 0.558971 0.558769 0.558751 0.559701 0.56065 0.561599 0.562548 0.565507 0.565246 0.565395 0.566343 0.567292 0.568241 0.569191 0.57014 0.574842 0.574622 0.574595 0.57554 0.587016 0.586801 0.586585 0.58637 0.586155 0.582236 0.582071 0.581906 0.582473 0.583421 0.58437 0.585319 0.586268 0.587217 0.588167 0.589115 0.590064 0.591013 0.591962 0.618992 0.612926 0.612629 0.612332 0.612035 0.611738 0.611441 0.611585 0.611753 0.611922 0.61209 0.612259 0.607099 0.606665 0.60623 0.607143 0.608092 0.609041 0.60999 0.610939 0.611888 0.612837 0.613787 0.614736 0.615685 0.616634 0.617583 0.624676 0.624479 0.624281 0.624084 0.623887 0.624742 0.634185 0.633991 0.633798 0.633605 0.633412 0.631184 0.630968 0.630865 0.631814 0.632763 0.633712 0.652259 0.642174 0.641984 0.641795 0.641606 0.641416 0.641773 0.660498 0.660316 0.660134 0.650404 0.650218 0.650032 0.649847 0.649661 0.65029 0.668067 0.667888 0.658496 0.658314 0.658132 0.65795 0.657768 0.657857 0.675527 0.675352 0.675177 0.666102 0.662906 0.66274 0.663125 0.664075 0.674125 0.67395 0.668933 0.668702 0.668819 0.669768 0.670717 0.671667 0.672616 0.673563 0.674512 0.675461 0.723874 0.724727 0.72558 0.724299 0.723005 0.722829 0.722653 0.722478 0.722302 0.722126 0.724885 0.72473 0.724575 0.72442 0.724265 0.72411 0.730758 0.730606 0.730453 0.730301 0.730149 0.729996 0.730292 0.736294 0.736144 0.735994 0.735844 0.735694 0.735544 0.718613 0.718438 0.718262 0.718087 0.717912 0.717736 0.717878 0.718105 0.718332 0.720715 0.727252 0.716268 0.716089 0.716264 0.717213 0.718161 0.726337 0.732844 0.726032 0.724015 0.723849 0.723853 0.724801 0.738407 0.731793 0.731643 0.731493 0.731343 0.73166 0.743798 0.737373 0.737226 0.737078 0.736843 0.736704 0.737136 0.738086 0.739035 0.739984 0.740933 0.741882 0.742831 1 1 1 0.788373 0.788235 0.788649 0.789502 0.790063 0.789935 0.78768 0.787541 0.787403 0.787264 0.787125 0.78917 0.789042 0.788915 0.788787 0.788659 0.789074 1 1 1 1 1 1 1 1 1 1 0.787128 0.784632 0.784493 0.784355 0.784216 0.784287 0.78457 1 1 1 0.783238 0.783099 0.78363 0.78559 0.787098 0.786966 0.787427 0.789758 1 1 1 1 1 1 1 1 1 1 1 1 1 1 1 1 1 1 1 1 1 1 1 1 1 1 1 1 1 1 1 1 1 1 1 1 1 1 1 1 1 1 1 1 1 1 1 1 1 1 1 1 1 1 1 1 1 1 1 1 1 1 1 1 1 1 1 1 1 1 1 1 1 1 1 1 1 1 1 1 1 1 1 1 1 1 1 1 1 1 1 1 1 1 1 1 1 1 1 1 1 1 1 1 1 1 1 1 1 1 1 1 1 1 1 1 1 1 1 1 1 1 1 1 1 1 1 1 1 1 1 1 1 1 1 1 1 1 1 1 1 1 1 1 1 1 1 1 1 1 1 1 1 1 1 1 1 1 1 1 1 1 1 1 1 1 1 1 1 1 1 1 1 1 1 1 1 1 1 1 1 1 1 1 1 1 1 1 1 1 1 1 1 1 1 1 1 1 1 1 1 1 1 1 1 1 1 1 1 1 1 1 1 1 1 1 1 1 1 1 1 1 1 1 1 1 1 1 1 1 1 1 1 1 1 1 1 1 1 1 1 1 1 1 1 1 1 1 1 1 1 1 1 1 1 1 1 1 1 1 1 1 1 1 1 1 1 1 1 1 1 1 1 1 1 1 1 1 1 1 1 1 1 1 1 1 1 1 1 1 1 1 1 1 1 1 1 1 1 1 1 1 1 1 1 1 1 1 1 1 1 1 1 1 1 1
1 1 1 1 1 1 1 1 1 1 1 1 1 1 1 1 1 1 1 1 1 1 1 1 1 1 1 1 1 1 1 1 1 1 1 1 1 1 1 1 1 1 1 1 1 1 1 1 1 1 1 1 1 1 1 1 1 1 1 1 1 1 1 1 1 1 1 1 1 1 1 1 1 1 1 1 1 1 1 1 1 1 1 1 1 1 1 1 1 1 1 1 1 1 1 1 1 1 1 1 1 1 1 1 1 1 1 1 1 1 1 1 1 1 1 1 1 1 1 1 1 1 1 1 1 1 1 1 1 1 1 1 1 1 1 1 1 1 1 1 1 1 1 0.353717 0.354558 0.3554 0.356241 0.357083 0.349274 0.348921 0.348567 0.348214 0.34786 0.347507 0.347154 0.3468 0.346655 0.347362 0.34807 0.348777 0.368024 0.368866 0.369707 0.370549 0.371359 0.371359 0.371359 0.371359 0.371359 0.371359 0.371359 0.371359 0.369884 0.369544 0.369204 0.368863 0.368523 0.368183 0.367842 0.367501 0.367161 0.36682 0.36648 0.366139 0.365799 0.365458 0.365118 0.364777 0.364653 0.365309 0.365965 0.366621 0.37136 0.37136 0.37136 0.37136 0.37136 0.371361 0.371361 0.371361 0.371361 0.371361 0.371361 0.371361 0.371361 0.371361 0.371361 0.371361 0.371361 0.371361 0.37136 0.37136 0.37136 0.371359 0.371359 0.371359 0.371358 0.371358 0.371358 0.371357 0.371357 0.371357 0.371356 0.371356 0.371356 0.323993 0.32495 0.325907 0.326864 0.327821 0.328778 0.329735 0.330692 0.331649 0.332606 0.333563 0.33452 0.335476 0.336433 0.33739 0.338347 0.339304 0.340261 0.341218 0.342175 0.343132 0.344089 0.345046 0.346003 0.34696 0.347917 0.348874 0.349831 0.350788 0.351745 0.352702 0.353659 0.354616 0.355573 0.35653 0.357487 0.358444 0.359401 0.360358 0.361315 0.362272 0.363229 0.364186 0.365143 0.3661 0.367057 0.368014 0.368971 0.369928 0.370885 0.414108 0.389147 0.388829 0.388512 0.388195 0.387877 0.38756 0.387242 0.38812 0.389067 0.411037 0.41073 0.410423 0.410116 0.409809 0.409502 0.409195 0.408888 0.408581 0.408273 0.407966 0.407659 0.407352 0.407045 0.406738 0.406431 0.406124 0.406099 0.407044 0.407139 0.406891 0.407809 0.408758 0.409707 0.410656 0.411604 0.412553 0.413502 0.41445 0.415399 0.416348 0.417297 0.424701 0.424404 0.424107 0.423809 0.424077 0.425023 0.425488 0.425163 0.425836 0.426785 0.427734 0.428683 0.429631 0.43058 0.442715 0.442427 0.442138 0.44185 0.441561 0.441273 0.440985 0.440697 0.441107 0.442053 0.460773 0.460494 0.461722 0.462225 0.479416 0.479145 0.450407 0.450148 0.449888 0.449628 0.450507 0.451456 0.452404 0.453353 0.454302 0.457193 0.458138 0.475886 0.475615 0.475343 0.475975 0.493581 0.493317 0.493053 0.492789 0.468383 0.468136 0.46789 0.467643 0.468534 0.469483 0.470432 0.47138 0.472329 0.474169 0.474228 0.475176 0.476125 0.477074 0.478023 0.478972 0.479921 0.48087 0.481819 0.482768 0.487247 0.486983 0.487469 0.488415 0.504147 0.503891 0.503634 0.503377 0.503121 0.502864 0.502607 0.502351 0.502094 0.501837 0.50158 0.501323 0.501066 0.501663 0.502609 0.517399 0.517149 0.516899 0.516649 0.516399 0.516149 0.515899 0.515649 0.5154 0.51515 0.5149 0.51465 0.514909 0.515855 0.545689 0.545452 0.545215 0.544977 0.54474 0.544503 0.528746 0.528503 0.528259 0.528016 0.527772 0.527529 0.528156 0.542605 0.542368 0.54213 0.541893 0.541656 0.541419 0.541181 0.540944 0.540706 0.540469 0.540232 0.539995 0.540457 0.568547 0.568321 0.568095 0.567869 0.567643 0.553234 0.553003 0.552772 0.55254 0.552309 0.552078 0.551846 0.552755 0.565611 0.565385 0.565159 0.564933 0.564708 0.55954 0.559339 0.559137 0.559624 0.560573 0.561522 0.562471 0.564532 0.564369 0.565318 0.566266 0.567215 0.568165 0.569114 0.574981 0.57476 0.57454 0.574518 0.575463 0.586936 0.586721 0.586505 0.58629 0.586075 0.585859 0.582974 0.582733 0.582493 0.583346 0.584294 0.585243 0.586192 0.587141 0.58809 0.589038 0.589987 0.590936 0.591885 0.592834 0.593783 0.594731 0.59568 0.596629 0.611266 0.611435 0.611603 0.602818 0.602383 0.602321 0.60327 0.604219 0.605168 0.606117 0.607066 0.608015 0.608964 0.609913 0.610862 0.611811 0.61276 0.613709 0.614659 0.615608 0.616557 0.617506 0.624603 0.624405 0.624208 0.624011 0.623813 0.624665 0.634113 0.63392 0.633727 0.633533 0.630776 0.63056 0.630344 0.630788 0.631737 0.632686 0.671036 0.65219 0.642104 0.641914 0.641725 0.641535 0.641346 0.641696 0.650891 0.660249 0.660066 0.650335 0.650149 0.649963 0.649778 0.649592 0.650213 0.668 0.667822 0.658428 0.658246 0.658064 0.657882 0.6577 0.657781 0.666572 0.667093 0.675112 0.666036 0.663175 0.663009 0.663048 0.663998 0.664947 0.667718 0.667488 0.667793 0.668742 0.669691 0.670641 0.67159 0.672539 0.673487 0.674435 0.675384 0.723805 0.724658 0.726067 0.725912 0.723416 0.722257 0.722081 0.721905 0.72173 0.721554 0.721378 0.724672 0.724517 0.724362 0.724207 0.724052 0.723897 0.723742 0.730397 0.730244 0.730092 0.730524 0.742589 0.742635 0.736088 0.735938 0.735788 0.735638 0.718217 0.718041 0.717866 0.71769 0.717515 0.717542 0.717769 0.717996 0.718223 0.721307 0.746652 0.746506 0.715632 0.715453 0.716186 0.717135 0.718084 0.720229 0.726127 0.725975 0.723624 0.723458 0.723776 0.724724 0.738352 0.731738 0.731588 0.731437 0.731287 0.731583 0.743744 0.737318 0.737171 0.737023 0.736876 0.736865 0.737059 0.738009 0.74002 0.740027 0.740856 0.741805 0.742754 0.743703 1 1 0.788046 0.787908 0.78858 0.790143 0.790015 0.789888 0.788169 0.787219 0.787081 0.786942 0.786804 0.786665 0.788995 0.788867 0.78874 0.788612 0.788484 0.788365 1 1 1 1 1 1 1 1 0.787208 0.784448 0.78431 0.784172 0.784033 0.78415 0.784432 1 1 1 1 0.782911 0.782772 0.783553 0.785514 0.786859 0.786724 0.78735 0.789712 1 1 1 1 1 1 1 1 1 1 1 1 1 1 1 1 1 1 1 1 1 1 1 1 1 1 1 1 1 1 1 1 1 1 1 1 1 1 1 1 1 1 1 1 1 1 1 1 1 1 1 1 1 1 1 1 1 1 1 1 1 1 1 1 1 1 1 1 1 1 1 1 1 1 1 1 1 1 1 1 1 1 1 1 1 1 1 1 1 1 1 1 1 1 1 1 1 1 1 1 1 1 1 1 1 1 1 1 1 1 1 1 1 1 1 1 1 1 1 1 1 1 1 1 1 1 1 1 1 1 1 1 1 1 1 1 1 1 1 1 1 1 1 1 1 1 1 1 1 1 1 1 1 1 1 1 1 1 1 1 1 1 1 1 1 1 1 1 1 1 1 1 1 1 1 1 1 1 1 1 1 1 1 1 1 1 1 1 1 1 1 1 1 1 1 1 1 1 1 1 1 1 1 1 1 1 1 1 1 1 1 1 1 1 1 1 1 1 1 1 1 1 1 1 1 1 1 1 1 1 1 1 1 1 1 1 1 1 1 1 1 1 1 1 1 1 1 1 1 1 1 1 1 1 1 1 1 1 1 1 1 1 1 1 1 1 1 1 1 1 1 1 1 1 1 1 1 1 1 1 1 1 1 1 1 1 1 1 1 1 1 1 1 1 1 1 1 1 1 1 1 1 1 1 1 1 1 1 1 1 1 1 1 1 1 1
1 1 1 1 1 1 1 1 1 1 1 1 1 1 1 1 1 1 1 1 1 1 1 1 1 1 1 1 1 1 1 1 1 1 1 1 1 1 1 1 1 1 1 1 1 1 1 1 1 1 1 1 1 1 1 1 1 1 1 1 1 1 1 1 1 1 1 1 1 1 1 1 1 1 1 1 1 1 1 1 1 1 1 1 1 1 1 1 1 1 1 1 1 1 1 1 1 1 1 1 1 1 1 1 1 1 1 1 1 1 1 1 1 1 1 1 1 1 1 1 1 1 1 1 1 1 1 1 1 1 1 1 1 1 1 1 1 1 1 1 1 1 1 0.353648 0.35449 0.355332 0.356173 0.357015 0.349143 0.348789 0.348436 0.348083 0.347729 0.347376 0.347022 0.347274 0.347981 0.348688 0.366273 0.367114 0.367956 0.368798 0.369639 0.370481 0.371322 0.372164 0.373006 0.373847 0.374689 0.37553 0.376372 0.377214 0.369758 0.369418 0.369077 0.368737 0.368396 0.368056 0.367716 0.367375 0.367034 0.366694 0.366353 0.366013 0.365672 0.365332 0.365162 0.365817 0.366473 0.367129 0.378841 0.378841 0.378841 0.378841 0.378841 0.378841 0.378841 0.378841 0.378841 0.378841 0.378841 0.378841 0.378841 0.378841 0.378841 0.378841 0.378841 0.378841 0.378841 0.37884 0.37884 0.37884 0.378839 0.378839 0.378839 0.378838 0.378838 0.378838 0.378837 0.378837 0.378837 0.378836 0.378836 0.378836 0.378835 0.323916 0.324873 0.32583 0.326787 0.327744 0.3287 0.329657 0.330614 0.331571 0.332528 0.333485 0.334442 0.335399 0.336356 0.337313 0.33827 0.339227 0.340184 0.341141 0.342098 0.343055 0.344012 0.344969 0.345926 0.346882 0.347839 0.348796 0.349753 0.35071 0.351667 0.352624 0.353581 0.354538 0.355495 0.356452 0.357409 0.358366 0.359323 0.36028 0.361237 0.362194 0.363151 0.364108 0.365065 0.366022 0.366979 0.367936 0.368893 0.36985 0.370807 0.371765 0.372722 0.373678 0.374635 0.375592 0.37655 0.377507 0.378463 0.388044 0.38899 0.410923 0.410616 0.410309 0.410002 0.409695 0.409388 0.409081 0.408774 0.408467 0.408159 0.407852 0.407545 0.407238 0.406931 0.406624 0.406317 0.40601 0.406021 0.406967 0.407914 0.408159 0.407911 0.408681 0.40963 0.410579 0.411527 0.412476 0.413425 0.414373 0.415322 0.416271 0.41722 0.418169 0.419118 0.423996 0.423698 0.424 0.424946 0.424675 0.42481 0.425759 0.426708 0.427657 0.428606 0.429554 0.442896 0.442607 0.442319 0.442031 0.441743 0.441454 0.441166 0.440878 0.44059 0.441031 0.441977 0.460669 0.46039 0.46011 0.45983 0.459551 0.459271 0.458992 0.450603 0.450343 0.450083 0.45043 0.451379 0.452328 0.453276 0.454225 0.457116 0.458061 0.475786 0.475514 0.475243 0.474971 0.4747 0.474428 0.474157 0.473885 0.473613 0.468681 0.468434 0.468187 0.468457 0.469406 0.470354 0.471303 0.472253 0.473202 0.474151 0.475099 0.476048 0.476997 0.477946 0.478896 0.479844 0.480793 0.481742 0.487413 0.487149 0.486885 0.487392 0.488338 0.504052 0.503795 0.503539 0.503282 0.503025 0.502769 0.502512 0.502255 0.501999 0.501742 0.501485 0.501228 0.500971 0.501586 0.502531 0.517306 0.517056 0.516806 0.516556 0.516306 0.516056 0.515807 0.515557 0.515307 0.515057 0.514807 0.514557 0.514833 0.515779 0.545601 0.545363 0.545126 0.544889 0.544652 0.544415 0.528656 0.528412 0.528169 0.527925 0.527682 0.527439 0.52808 0.542517 0.542279 0.542042 0.541805 0.541568 0.54133 0.541093 0.540856 0.540619 0.540381 0.540144 0.539907 0.540379 0.568463 0.568237 0.568011 0.567785 0.567559 0.553148 0.552917 0.552686 0.552454 0.552223 0.551992 0.55176 0.552678 0.565527 0.565301 0.565075 0.56485 0.564624 0.564398 0.559908 0.559707 0.559546 0.560496 0.561445 0.562394 0.563343 0.564292 0.56524 0.566189 0.567139 0.568088 0.575119 0.574899 0.574678 0.574458 0.574441 0.575386 0.586856 0.586641 0.586425 0.58621 0.585995 0.582504 0.582263 0.582022 0.582322 0.58327 0.584219 0.585166 0.586115 0.587064 0.588013 0.588961 0.58991 0.590859 0.591808 0.592757 0.593706 0.594655 0.595603 0.596552 0.597501 0.598449 0.599398 0.600347 0.601296 0.602245 0.603194 0.604143 0.605092 0.606041 0.60699 0.607939 0.608888 0.609837 0.610785 0.611734 0.612683 0.615127 0.615308 0.615531 0.61648 0.617429 0.618378 0.624332 0.624135 0.623937 0.62374 0.624589 0.634041 0.633848 0.633655 0.633461 0.630152 0.629937 0.629762 0.630711 0.63166 0.632609 0.670969 0.670974 0.642033 0.641844 0.641654 0.641465 0.641275 0.641619 0.650822 0.650637 0.651413 0.650266 0.65008 0.649894 0.649709 0.649523 0.650136 0.667934 0.667755 0.658361 0.658179 0.657997 0.657815 0.657633 0.657704 0.666505 0.666327 0.666148 0.66597 0.663444 0.663278 0.663112 0.66392 0.66487 0.666274 0.666767 0.667717 0.668666 0.669615 0.670564 0.671514 0.673424 0.67341 0.674359 0.675308 0.676256 0.72459 0.726009 0.725855 0.7257 0.722533 0.721509 0.721333 0.721157 0.720982 0.720806 0.72063 0.72446 0.724305 0.72415 0.723995 0.72384 0.723685 0.72353 0.723452 0.730756 0.74289 0.742727 0.74258 0.742432 0.742284 0.717996 0.71782 0.717645 0.717469 0.717294 0.717206 0.717433 0.717659 0.717887 0.721263 0.746888 0.746743 0.746598 0.715175 0.714997 0.71516 0.716109 0.717058 0.7195 0.720152 0.726071 0.725918 0.723233 0.723068 0.723699 0.724647 0.738297 0.731682 0.731532 0.731382 0.731232 0.731507 0.74369 0.737264 0.737116 0.736968 0.736821 0.737026 0.736982 0.737932 0.742527 0.742382 0.742236 0.742345 0.742678 0.743626 1 1 0.787719 0.787659 0.788511 0.790096 0.789968 0.78984 0.789713 0.787097 0.786759 0.78662 0.786482 0.786343 0.788947 0.78882 0.788692 0.788565 0.788437 0.788309 0.788182 1 1 1 1 1 0.787416 0.784404 0.784265 0.784127 0.783988 0.78385 0.784012 0.784294 1 1 1 1 1 0.782584 0.782529 0.783477 0.785437 0.786603 0.786469 0.787273 0.789665 1 1 1 1 1 1 1 1 1 1 1 1 1 1 1 1 1 1 1 1 1 1 1 1 1 1 1 1 1 1 1 1 1 1 1 1 1 1 1 1 1 1 1 1 1 1 1 1 1 1 1 1 1 1 1 1 1 1 1 1 1 1 1 1 1 1 1 1 1 1 1 1 1 1 1 1 1 1 1 1 1 1 1 1 1 1 1 1 1 1 1 1 1 1 1 1 1 1 1 1 1 1 1 1 1 1 1 1 1 1 1 1 1 1 1 1 1 1 1 1 1 1 1 1 1 1 1 1 1 1 1 1 1 1 1 1 1 1 1 1 1 1 1 1 1 1 1 1 1 1 1 1 1 1 1 1 1 1 1 1 1 1 1 1 1 1 1 1 1 1 1 1 1 1 1 1 1 1 1 1 1 1 1 1 1 1 1 1 1 1 1 1 1 1 1 1 1 1 1 1 1 1 1 1 1 1 1 1 1 1 1 1 1 1 1 1 1 1 1 1 1 1 1 1 1 1 1 1 1 1 1 1 1 1 1 1 1 1 1 1 1 1 1 1 1 1 1 1 1 1 1 1 1 1 1 1 1 1 1 1 1 1 1 1 1 1 1 1 1 1 1 1 1 1 1 1 1 1 1 1 1 1 1 1 1 1 1 1 1 1 1 1 1 1 1 1 1 1 1 1 1 1 1 1 1 1 1 1 1 1 1 1 1 1 1 1
1 1 1 1 1 1 1 1 1 1 1 1 1 1 1 1 1 1 1 1 1 1 1 1 1 1 1 1 1 1 1 1 1 1 1 1 1 1 1 1 1 1 1 1 1 1 1 1 1 1 1 1 1 1 1 1 1 1 1 1 1 1 1 1 1 1 1 1 1 1 1 1 1 1 1 1 1 1 1 1 1 1 1 1 1 1 1 1 1 1 1 1 1 1 1 1 1 1 1 1 1 1 1 1 1 1 1 1 1 1 1 1 1 1 1 1 1 1 1 1 1 1 1 1 1 1 1 1 1 1 1 1 1 1 1 1 1 1 1 1 1 1 1 0.35358 0.354422 0.355263 0.356105 0.356947 0.357788 0.35863 0.359471 0.360313 0.361155 0.361996 0.362838 0.363679 0.364521 0.365363 0.366204 0.367046 0.367888 0.368729 0.369571 0.370412 0.371254 0.372096 0.372937 0.373779 0.374621 0.375462 0.376304 0.377145 0.369632 0.369291 0.368951 0.36861 0.36827 0.367929 0.367589 0.367248 0.366908 0.366567 0.366227 0.365886 0.36567 0.366326 0.366982 0.367638 0.386321 0.386321 0.386321 0.386321 0.386321 0.386321 0.386322 0.386322 0.386322 0.386322 0.386322 0.386322 0.386322 0.386322 0.386322 0.386322 0.386179 0.385851 0.385522 0.385194 0.384865 0.384537 0.384208 0.383879 0.383551 0.383222 0.382894 0.382565 0.382237 0.381908 0.382137 0.382736 0.383334 0.386316 0.386316 0.386315 0.386315 0.323838 0.324795 0.325752 0.326709 0.327666 0.328623 0.32958 0.330537 0.331494 0.332451 0.333408 0.334365 0.335322 0.336279 0.337236 0.338193 0.33915 0.340107 0.341063 0.34202 0.342977 0.343934 0.344891 0.345848 0.346805 0.347762 0.348719 0.349676 0.350633 0.35159 0.352547 0.353504 0.354461 0.355418 0.356375 0.357332 0.358289 0.359246 0.360203 0.36116 0.362117 0.363074 0.364031 0.364988 0.365945 0.366902 0.367859 0.368816 0.369773 0.37073 0.371687 0.372644 0.373601 0.374558 0.375515 0.376472 0.377429 0.378386 0.379343 0.3803 0.381257 0.382214 0.383171 0.384128 0.385085 0.386042 0.408967 0.40866 0.408353 0.408045 0.407738 0.407431 0.407124 0.406817 0.406509 0.406203 0.405896 0.405944 0.406891 0.407837 0.409427 0.409179 0.408931 0.409553 0.410502 0.411451 0.412399 0.413348 0.414297 0.415245 0.416194 0.417143 0.418092 0.419041 0.41999 0.423588 0.423923 0.42487 0.427835 0.424733 0.425682 0.426631 0.42758 0.428529 0.429477 0.442788 0.4425 0.442212 0.441924 0.441636 0.441347 0.441059 0.440771 0.440483 0.440954 0.441901 0.460566 0.460286 0.460006 0.459727 0.459447 0.459167 0.458888 0.451058 0.450798 0.450539 0.450354 0.451302 0.452251 0.453199 0.454148 0.455097 0.457985 0.475685 0.475413 0.475142 0.47487 0.474599 0.474327 0.474056 0.473784 0.473512 0.469226 0.468979 0.468732 0.468485 0.469329 0.470277 0.471227 0.472176 0.473125 0.474073 0.475022 0.475971 0.476921 0.47787 0.478819 0.479768 0.480717 0.487579 0.487315 0.487051 0.486787 0.487317 0.488263 0.503956 0.5037 0.503443 0.503186 0.50293 0.502673 0.502416 0.50216 0.501903 0.501646 0.50139 0.501132 0.500875 0.50151 0.502454 0.517213 0.516963 0.516713 0.516463 0.516214 0.515964 0.515714 0.515464 0.515214 0.514964 0.514714 0.514464 0.514756 0.515703 0.545512 0.545275 0.545038 0.544801 0.544564 0.544326 0.528566 0.528322 0.528078 0.527835 0.527592 0.527348 0.528003 0.542428 0.542191 0.541954 0.541717 0.541479 0.541242 0.541005 0.540767 0.54053 0.540293 0.540056 0.539818 0.540303 0.554219 0.55419 0.56938 0.567701 0.567475 0.553062 0.552831 0.5526 0.552368 0.552137 0.551906 0.551674 0.552602 0.565443 0.565217 0.564992 0.564766 0.56454 0.564314 0.560478 0.560276 0.560075 0.560419 0.561368 0.562317 0.563266 0.564214 0.565164 0.566113 0.567062 0.568012 0.575037 0.574817 0.574596 0.574376 0.574364 0.57531 0.586776 0.586561 0.586346 0.58613 0.585915 0.581793 0.581552 0.581311 0.582245 0.583193 0.584142 0.58509 0.586045 0.586987 0.587936 0.588884 0.589833 0.590782 0.591731 0.59268 0.593629 0.594578 0.595527 0.596475 0.597424 0.598373 0.599322 0.60027 0.601219 0.602168 0.603117 0.604066 0.605016 0.605965 0.606914 0.607863 0.608812 0.60976 0.610709 0.611658 0.614534 0.615051 0.615842 0.615663 0.616403 0.617352 0.618301 0.624259 0.624061 0.623864 0.623667 0.624512 0.633969 0.633776 0.633583 0.629744 0.629529 0.629313 0.629685 0.630634 0.631583 0.632532 0.671569 0.679537 0.641963 0.641773 0.641584 0.641394 0.641205 0.641542 0.650753 0.650568 0.650382 0.650197 0.650011 0.649825 0.64964 0.649454 0.650059 0.676734 0.676558 0.658293 0.658111 0.657929 0.657747 0.657565 0.657627 0.666439 0.66626 0.666082 0.665903 0.665725 0.663563 0.6634 0.663843 0.664792 0.665742 0.666691 0.66764 0.668589 0.669539 0.670488 0.672767 0.673989 0.673838 0.674282 0.675231 0.67618 1 0.725952 0.725797 0.725642 0.725487 0.72165 0.720761 0.720585 0.720409 0.720234 0.720058 0.719882 0.724247 0.724092 0.723937 0.723782 0.723627 0.723472 0.723317 0.723162 0.723307 0.742672 0.742525 0.717775 0.717599 0.717423 0.717248 0.717072 0.716897 0.717097 0.717323 0.71755 0.72122 0.740997 0.74698 0.746834 0.746689 0.733877 0.714539 0.714361 0.715084 0.716032 0.716981 0.719443 0.720076 0.726014 0.723009 0.722843 0.722677 0.723622 0.72457 0.738242 0.731626 0.731476 0.731326 0.731176 0.73143 0.737961 0.737209 0.737061 0.736913 0.736766 0.737107 0.737048 0.737854 0.742473 0.742327 0.742182 0.742631 0.7426 0.74355 1 0.78753 0.787392 0.78759 0.788442 0.790048 0.789921 0.789793 0.789666 0.790012 0.786437 0.786299 0.78616 0.786022 0.785883 0.793718 0.788645 0.788517 0.78839 0.788262 0.788134 0.788007 0.788336 1 1 0.787496 0.78422 0.784082 0.783944 0.783805 0.783666 0.783874 0.784157 1 1 1 1 1 0.782395 0.782256 0.782452 0.7834 0.78536 0.786348 0.786246 0.787197 0.789618 1 1 1 1 1 1 1 1 1 1 1 1 1 1 1 1 1 1 1 1 1 1 1 1 1 1 1 1 1 1 1 1 1 1 1 1 1 1 1 1 1 1 1 1 1 1 1 1 1 1 1 1 1 1 1 1 1 1 1 1 1 1 1 1 1 1 1 1 1 1 1 1 1 1 1 1 1 1 1 1 1 1 1 1 1 1 1 1 1 1 1 1 1 1 1 1 1 1 1 1 1 1 1 1 1 1 1 1 1 1 1 1 1 1 1 1 1 1 1 1 1 1 1 1 1 1 1 1 1 1 1 1 1 1 1 1 1 1 1 1 1 1 1 1 1 1 1 1 1 1 1 1 1 1 1 1 1 1 1 1 1 1 1 1 1 1 1 1 1 1 1 1 1 1 1 1 1 1 1 1 1 1 1 1 1 1 1 1 1 1 1 1 1 1 1 1 1 1 1 1 1 1 1 1 1 1 1 1 1 1 1 1 1 1 1 1 1 1 1 1 1 1 1 1 1 1 1 1 1 1 1 1 1 1 1 1 1 1 1 1 1 1 1 1 1 1 1 1 1 1 1 1 1 1 1 1 1 1 1 1 1 1 1 1 1 1 1 1 1 1 1 1 1 1 1 1 1 1 1 1 1 1 1 1 1 1 1 1 1 1 1 1 1 1 1 1 1 1 1 1 1 1 1 1 1 1 1 1 1 1 1 1 1 1 1 1
1 1 1 1 1 1 1 1 1 1 1 1 1 1 1 1 1 1 1 1 1 1 1 1 1 1 1 1 1 1 1 1 1 1 1 1 1 1 1 1 1 1 1 1 1 1 1 1 1 1 1 1 1 1 1 1 1 1 1 1 1 1 1 1 1 1 1 1 1 1 1 1 1 1 1 1 1 1 1 1 1 1 1 1 1 1 1 1 1 1 1 1 1 1 1 1 1 1 1 1 1 1 1 1 1 1 1 1 1 1 1 1 1 1 1 1 1 1 1 1 1 1 1 1 1 1 1 1 1 1 1 1 1 1 1 1 1 1 1 1 1 1 1 0.353512 0.354353 0.355195 0.356037 0.356878 0.35772 0.358562 0.359403 0.360245 0.361086 0.361928 0.36277 0.363611 0.364453 0.365294 0.366136 0.366978 0.367819 0.368661 0.369503 0.370344 0.371186 0.372027 0.372869 0.373711 0.374552 0.375394 0.376236 0.377077 0.369505 0.369165 0.368824 0.368484 0.368143 0.367803 0.367463 0.367122 0.366781 0.36644 0.366179 0.366834 0.36749 0.368146 0.389702 0.390543 0.391385 0.392226 0.393068 0.393802 0.393802 0.393802 0.393802 0.389014 0.388686 0.388357 0.388029 0.3877 0.387371 0.387043 0.386714 0.386386 0.386057 0.385729 0.3854 0.385071 0.384743 0.384414 0.384086 0.383757 0.383429 0.3831 0.382771 0.382703 0.326715 0.326715 0.326715 0.326716 0.326716 0.326717 0.326718 0.326719 0.32672 0.32672 0.326721 0.326722 0.326721 0.327589 0.328546 0.329503 0.33046 0.331417 0.332374 0.33333 0.334287 0.335244 0.336201 0.337158 0.338115 0.339072 0.340029 0.340986 0.341943 0.3429 0.343857 0.344814 0.345771 0.346728 0.347685 0.348642 0.349599 0.350556 0.351513 0.352469 0.353426 0.354383 0.35534 0.356297 0.357254 0.358211 0.359168 0.360125 0.361082 0.362039 0.362996 0.363953 0.36491 0.365867 0.366824 0.367781 0.368738 0.369695 0.370652 0.371609 0.372566 0.373523 0.37448 0.375437 0.376394 0.377351 0.378309 0.379266 0.380223 0.38118 0.382137 0.383094 0.384051 0.385007 0.385964 0.386921 0.387878 0.388835 0.389792 0.390749 0.391706 0.392663 0.39362 0.406396 0.406089 0.405782 0.405868 0.406814 0.428235 0.427938 0.410755 0.410525 0.410296 0.410425 0.411374 0.412322 0.413271 0.41422 0.415168 0.416117 0.417066 0.418015 0.418964 0.419913 0.420862 0.421811 0.424793 0.427759 0.424657 0.425605 0.426554 0.427503 0.428452 0.44297 0.442681 0.442393 0.442105 0.441817 0.441528 0.44124 0.440952 0.440664 0.440376 0.440877 0.441824 0.460462 0.460182 0.459902 0.459623 0.459343 0.459064 0.458784 0.458504 0.451254 0.450994 0.450734 0.451225 0.452174 0.453123 0.454071 0.45502 0.457908 0.475584 0.475312 0.475041 0.474769 0.474498 0.474226 0.473955 0.473683 0.473411 0.47314 0.469524 0.469277 0.46903 0.469252 0.470201 0.47115 0.472099 0.473048 0.473996 0.474945 0.475895 0.476844 0.477793 0.478742 0.479691 0.487744 0.487481 0.487217 0.486953 0.486689 0.48724 0.488186 0.503861 0.503604 0.503348 0.503091 0.502834 0.502578 0.502321 0.502064 0.501808 0.501551 0.501294 0.501037 0.50078 0.501433 0.51737 0.51712 0.51687 0.51662 0.516371 0.516121 0.515871 0.515621 0.515371 0.515121 0.514871 0.514621 0.514371 0.514679 0.515624 0.545424 0.545187 0.54495 0.544713 0.544475 0.544238 0.528475 0.528232 0.527988 0.527745 0.527501 0.527258 0.527926 0.54234 0.542103 0.541866 0.541628 0.541391 0.541154 0.540917 0.540679 0.540442 0.540205 0.539968 0.53973 0.540226 0.554133 0.553902 0.553671 0.553439 0.554583 0.552976 0.552745 0.552514 0.552282 0.552051 0.55182 0.551588 0.552525 0.565359 0.565134 0.564908 0.564682 0.564456 0.564231 0.564005 0.560846 0.560645 0.560443 0.561291 0.56224 0.563189 0.564138 0.565087 0.566037 0.566986 0.575176 0.574955 0.574735 0.574514 0.574294 0.574287 0.575233 0.586696 0.586481 0.586266 0.58605 0.581322 0.581082 0.580841 0.581219 0.582168 0.583116 0.584065 0.58802 0.587879 0.587738 0.587859 0.588807 0.589756 0.590705 0.591654 0.592603 0.593552 0.594501 0.59545 0.596399 0.597347 0.598296 0.599245 0.600194 0.601143 0.602091 0.60304 0.603989 0.604939 0.605888 0.606838 0.607787 0.608735 0.609683 0.614862 0.614661 0.614459 0.614974 0.616375 0.616197 0.616326 0.617275 0.618224 0.619172 0.623988 0.623791 0.623593 0.624436 0.633897 0.633704 0.633511 0.629121 0.628905 0.62869 0.629609 0.630557 0.631506 0.661866 0.662759 0.661502 0.641892 0.641703 0.641513 0.641324 0.641135 0.641466 0.650684 0.650499 0.650313 0.650128 0.649942 0.649756 0.649571 0.649385 0.649982 0.676669 0.676493 0.658225 0.658043 0.657861 0.657679 0.657497 0.657551 0.666373 0.666194 0.666015 0.665837 0.665658 0.663915 0.663752 0.663766 0.664716 0.665665 0.666615 0.667564 0.668513 0.669462 0.672813 0.672691 0.674555 0.674403 0.674252 0.675154 0.676103 0.677052 0.725894 0.725739 0.725584 0.725429 0.725527 0.720767 0.720013 0.719837 0.719662 0.719486 0.71931 0.719134 0.724035 0.72388 0.723725 0.72357 0.723415 0.72326 0.723105 0.72295 0.722795 0.717378 0.717202 0.717027 0.716851 0.716676 0.71676 0.716987 0.717214 0.717441 0.721812 0.734571 0.734421 0.746926 0.74678 0.733971 0.714082 0.713904 0.714057 0.715006 0.715955 0.71954 0.719385 0.719999 0.725957 0.722618 0.722452 0.722596 0.723545 0.725675 0.738187 0.73157 0.73142 0.73127 0.73112 0.731353 0.737301 0.737154 0.737006 0.736858 0.736711 0.73703 0.737209 0.737777 0.742419 0.742274 0.742128 0.742706 0.742784 0.743473 0.744422 0.787203 0.787065 0.787521 0.788373 0.790001 0.789873 0.789746 0.789618 0.789942 0.794103 0.785977 0.785838 0.7857 0.785561 0.785423 1 0.78847 0.788342 0.788215 0.788087 0.787959 0.787832 0.787704 0.787576 0.784037 0.783899 0.78376 0.783622 0.783483 0.783737 0.784019 0.791333 0.791208 0.791082 0.790956 0.79083 0.790704 0.782068 0.781929 0.782375 0.783323 0.785284 0.786093 0.78617 0.78712 0.789571 1 1 1 1 1 1 1 1 1 1 1 1 1 1 1 1 1 1 1 1 1 1 1 1 1 1 1 1 1 1 1 1 1 1 1 1 1 1 1 1 1 1 1 1 1 1 1 1 1 1 1 1 1 1 1 1 1 1 1 1 1 1 1 1 1 1 1 1 1 1 1 1 1 1 1 1 1 1 1 1 1 1 1 1 1 1 1 1 1 1 1 1 1 1 1 1 1 1 1 1 1 1 1 1 1 1 1 1 1 1 1 1 1 1 1 1 1 1 1 1 1 1 1 1 1 1 1 1 1 1 1 1 1 1 1 1 1 1 1 1 1 1 1 1 1 1 1 1 1 1 1 1 1 1 1 1 1 1 1 1 1 1 1 1 1 1 1 1 1 1 1 1 1 1 1 1 1 1 1 1 1 1 1 1 1 1 1 1 1 1 1 1 1 1 1 1 1 1 1 1 1 1 1 1 1 1 1 1 1 1 1 1 1 1 1 1 1 1 1 1 1 1 1 1 1 1 1 1 1 1 1 1 1 1 1 1 1 1 1 1 1 1 1 1 1 1 1 1 1 1 1 1 1 1 1 1 1 1 1 1 1 1 1 1 1 1 1 1 1 1 1 1 1 1 1 1 1 1 1 1 1 1 1 1 1 1 1 1 1 1 1 1 1 1 1 1 1 1 1 1 1 1 1 1 1 1 1 1 1 1 1 1 1 1 1 1
1 1 1 1 1 1 1 1 1 1 1 1 1 1 1 1 1 1 1 1 1 1 1 1 1 1 1 1 1 1 1 1 1 1 1 1 1 1 1 1 1 1 1 1 1 1 1 1 1 1 1 1 1 1 1 1 1 1 1 1 1 1 1 1 1 1 1 1 1 1 1 1 1 1 1 1 1 1 1 1 1 1 1 1 1 1 1 1 1 1 1 1 1 1 1 1 1 1 1 1 1 1 1 1 1 1 1 1 1 1 1 1 1 1 1 1 1 1 1 1 1 1 1 1 1 1 1 1 1 1 1 1 1 1 1 1 1 1 1 1 1 1 1 0.353444 0.354285 0.355127 0.355968 0.35681 0.357652 0.358493 0.359335 0.360176 0.361018 0.36186 0.362701 0.363543 0.364385 0.365226 0.366068 0.366909 0.367751 0.368593 0.369434 0.370276 0.371118 0.371959 0.372801 0.373642 0.374484 0.375326 0.376167 0.377009 0.370086 0.370937 0.371787 0.371713 0.371374 0.371035 0.370696 0.370357 0.370018 0.369679 0.386267 0.387108 0.38795 0.388792 0.389633 0.390475 0.391317 0.392158 0.393 0.393841 0.394683 0.334874 0.334874 0.334874 0.334874 0.334874 0.334873 0.334873 0.334873 0.334873 0.334873 0.334873 0.334873 0.334872 0.334872 0.334872 0.334872 0.334872 0.334872 0.334872 0.334871 0.334871 0.334871 0.334871 0.334871 0.334871 0.33487 0.33487 0.33487 0.33487 0.33487 0.33487 0.33487 0.334869 0.334869 0.334869 0.33487 0.334871 0.334871 0.334872 0.334873 0.334874 0.334875 0.334875 0.334872 0.335167 0.336124 0.337081 0.338038 0.338995 0.339952 0.340909 0.341866 0.342823 0.34378 0.344737 0.345693 0.34665 0.347607 0.348564 0.349521 0.350478 0.351435 0.352392 0.353349 0.354306 0.355263 0.35622 0.357177 0.358134 0.359091 0.360048 0.361005 0.361962 0.362919 0.363876 0.364833 0.36579 0.366747 0.367704 0.368661 0.369618 0.370575 0.371532 0.372489 0.373446 0.374403 0.37536 0.376317 0.377274 0.378231 0.379188 0.380145 0.381102 0.382059 0.383016 0.383973 0.38493 0.385887 0.386844 0.387801 0.388758 0.389715 0.390672 0.391629 0.392586 0.393543 0.3945 0.395457 0.396414 0.397371 0.398328 0.399285 0.400242 0.401199 0.412248 0.412018 0.411789 0.41156 0.412245 0.413194 0.414143 0.415091 0.41604 0.416989 0.417938 0.418887 0.419836 0.420785 0.421734 0.422683 0.423632 0.424581 0.425529 0.426477 0.427426 0.428375 0.442862 0.442574 0.442286 0.441998 0.44171 0.441421 0.441133 0.440845 0.440557 0.440269 0.440801 0.441746 0.460358 0.460078 0.459799 0.459519 0.459239 0.45896 0.45868 0.4584 0.451709 0.451449 0.451189 0.451149 0.452097 0.453046 0.453994 0.454943 0.457832 0.475483 0.475211 0.47494 0.474668 0.474397 0.474125 0.473854 0.473582 0.473311 0.468269 0.467868 0.467467 0.468226 0.469175 0.470124 0.471073 0.472022 0.472971 0.47392 0.474869 0.475818 0.476767 0.477717 0.478666 0.48791 0.487646 0.487383 0.487119 0.486855 0.486591 0.487163 0.48811 0.503766 0.503509 0.503252 0.502996 0.502739 0.502482 0.502226 0.501969 0.501712 0.501456 0.501199 0.500942 0.500685 0.501355 0.517277 0.517027 0.516777 0.516528 0.516278 0.51678 0.517438 0.515528 0.515278 0.515028 0.514778 0.514528 0.514279 0.514603 0.515548 0.545336 0.545099 0.544862 0.544625 0.544387 0.54415 0.528385 0.528141 0.527897 0.527654 0.527411 0.527167 0.527849 0.542252 0.542015 0.541777 0.54154 0.541303 0.541066 0.540828 0.540591 0.540354 0.540117 0.539879 0.539642 0.540149 0.554047 0.553816 0.553585 0.553353 0.553122 0.55289 0.552659 0.552428 0.552196 0.551965 0.551734 0.551502 0.552448 0.565276 0.56505 0.564824 0.565303 0.56589 0.564147 0.563921 0.561415 0.561214 0.561013 0.561214 0.562163 0.563113 0.564062 0.565011 0.56596 0.575315 0.575094 0.574874 0.574653 0.574432 0.574212 0.574211 0.575157 0.586616 0.586401 0.586185 0.58597 0.580611 0.580371 0.580192 0.581142 0.582091 0.583039 0.583988 0.596779 0.596568 0.589644 0.589561 0.589477 0.589679 0.590628 0.591577 0.592526 0.593475 0.594424 0.595373 0.596322 0.597271 0.59822 0.599168 0.600117 0.601066 0.602015 0.602963 0.603912 0.604861 0.605811 0.60676 0.607709 0.615191 0.614989 0.614788 0.614586 0.614384 0.614898 0.616908 0.61673 0.616552 0.617198 0.618147 0.619096 0.623915 0.623717 0.62352 0.624359 0.633826 0.633632 0.628614 0.628393 0.628171 0.628583 0.629532 0.63048 0.631429 0.661798 0.661616 0.661434 0.641822 0.641633 0.641443 0.641254 0.641064 0.641389 0.650615 0.65043 0.650244 0.650059 0.649873 0.649688 0.649502 0.649316 0.649906 1 1 0.658158 0.657976 0.657794 0.657612 0.65743 0.657474 0.666306 0.666128 0.665949 0.66577 0.665592 0.664267 0.664104 0.663941 0.664639 0.665589 0.666538 0.667487 0.668437 0.672923 0.672748 0.672614 0.720929 0.674969 0.674818 0.675076 0.676026 0.676975 0.677924 0.725682 0.725527 0.725372 0.725458 0.729496 0.719885 0.719265 0.71909 0.718914 0.718738 0.718562 0.718386 0.723822 0.723667 0.723512 0.723357 0.723202 0.723047 0.717157 0.716981 0.716806 0.71663 0.716455 0.716424 0.716651 0.716878 0.717104 0.721769 0.734815 0.734665 0.734515 0.734365 0.734215 0.734065 0.733915 0.713446 0.713268 0.713981 0.714929 0.715878 0.719482 0.719327 0.719922 0.725901 0.722227 0.722061 0.72252 0.723468 0.7256 1 0.731515 0.731365 0.731214 0.731064 0.731277 0.737247 0.737099 0.736951 0.736804 0.736656 0.736953 0.73737 0.7377 0.738649 0.74222 0.742074 0.742629 0.74307 0.743395 0.744345 0.786876 0.786738 0.787452 1 0.789953 0.789826 0.789698 0.789571 0.789872 0.794056 0.785916 0.785516 0.785378 0.785239 0.785101 0.793301 0.793175 0.788295 0.788167 0.78804 0.787912 0.787784 0.787657 0.783854 0.783716 0.783577 0.783438 0.783317 0.783599 0.791538 0.791413 0.791287 0.791161 0.791035 0.790909 0.790783 0.790657 0.781741 0.781602 0.782297 0.78536 0.785232 0.785837 0.786093 0.78965 0.789524 0.789939 1 1 1 1 1 1 1 1 1 1 1 1 1 1 1 1 1 1 1 1 1 1 1 1 1 1 1 1 1 1 1 1 1 1 1 1 1 1 1 1 1 1 1 1 1 1 1 1 1 1 1 1 1 1 1 1 1 1 1 1 1 1 1 1 1 1 1 1 1 1 1 1 1 1 1 1 1 1 1 1 1 1 1 1 1 1 1 1 1 1 1 1 1 1 1 1 1 1 1 1 1 1 1 1 1 1 1 1 1 1 1 1 1 1 1 1 1 1 1 1 1 1 1 1 1 1 1 1 1 1 1 1 1 1 1 1 1 1 1 1 1 1 1 1 1 1 1 1 1 1 1 1 1 1 1 1 1 1 1 1 1 1 1 1 1 1 1 1 1 1 1 1 1 1 1 1 1 1 1 1 1 1 1 1 1 1 1 1 1 1 1 1 1 1 1 1 1 1 1 1 1 1 1 1 1 1 1 1 1 1 1 1 1 1 1 1 1 1 1 1 1 1 1 1 1 1 1 1 1 1 1 1 1 1 1 1 1 1 1 1 1 1 1 1 1 1 1 1 1 1 1 1 1 1 1 1 1 1 1 1 1 1 1 1 1 1 1 1 1 1 1 1 1 1 1 1 1 1 1 1 1 1 1 1 1 1 1 1 1 1 1 1 1 1 1 1 1 1 1 1 1 1 1 1 1 1 1 1 1 1 1 1 1 1 1
1 1 1 1 1 1 1 1 1 1 1 1 1 1 1 1 1 1 1 1 1 1 1 1 1 1 1 1 1 1 1 1 1 1 1 1 1 1 1 1 1 1 1 1 1 1 1 1 1 1 1 1 1 1 1 1 1 1 1 1 1 1 1 1 1 1 1 1 1 1 1 1 1 1 1 1 1 1 1 1 1 1 1 1 1 1 1 1 1 1 1 1 1 1 1 1 1 1 1 1 1 1 1 1 1 1 1 1 1 1 1 1 1 1 1 1 1 1 1 1 1 1 1 1 1 1 1 1 1 1 1 1 1 1 1 1 1 1 1 1 1 1 0.352534 0.353375 0.354217 0.355059 0.3559 0.356742 0.357583 0.358425 0.359267 0.360108 0.36095 0.361791 0.362633 0.363475 0.364316 0.365158 0.366 0.366841 0.367683 0.368524 0.369366 0.370208 0.371049 0.371891 0.372733 0.373574 0.374416 0.343033 0.343033 0.343033 0.343033 0.343033 0.343032 0.343032 0.343032 0.343032 0.343032 0.343032 0.343031 0.343031 0.343031 0.343031 0.343031 0.343031 0.343031 0.34303 0.34303 0.34303 0.34303 0.34303 0.34303 0.34303 0.343029 0.343029 0.343029 0.343029 0.343029 0.343029 0.343028 0.343028 0.343028 0.343028 0.343028 0.343028 0.343028 0.343027 0.343027 0.343027 0.343027 0.343027 0.343027 0.343026 0.343026 0.343026 0.343026 0.343026 0.343026 0.343026 0.343025 0.343025 0.343025 0.343025 0.343025 0.343025 0.343025 0.343024 0.343024 0.343024 0.343024 0.343024 0.343024 0.343023 0.343023 0.343023 0.343023 0.343024 0.343025 0.343026 0.343026 0.343027 0.343028 0.343026 0.343023 0.343021 0.343702 0.344659 0.345616 0.346573 0.34753 0.348487 0.349444 0.350401 0.351358 0.352315 0.353272 0.354229 0.355186 0.356143 0.3571 0.358056 0.359013 0.35997 0.360927 0.361884 0.362841 0.363798 0.364755 0.365712 0.366669 0.367626 0.368583 0.36954 0.370497 0.371454 0.372411 0.373368 0.374325 0.375282 0.376239 0.377196 0.378153 0.37911 0.380067 0.381024 0.381981 0.382938 0.383895 0.384853 0.38581 0.386767 0.387724 0.388681 0.389638 0.390595 0.391552 0.392508 0.393465 0.394422 0.395379 0.396336 0.397293 0.39825 0.399207 0.400164 0.401121 0.402078 0.403035 0.403992 0.404949 0.405906 0.406863 0.40782 0.415015 0.415963 0.416912 0.417861 0.41881 0.419759 0.420708 0.421657 0.422606 0.423555 0.424504 0.425453 0.426401 0.427349 0.443044 0.442755 0.442467 0.442179 0.441891 0.441603 0.441314 0.441026 0.440738 0.44045 0.440162 0.440724 0.441669 0.460254 0.459974 0.459694 0.459415 0.459135 0.458856 0.458576 0.458296 0.458017 0.451905 0.451645 0.451385 0.45202 0.452969 0.453918 0.454866 0.455815 0.475382 0.47511 0.474839 0.474567 0.474296 0.474024 0.466161 0.465764 0.465363 0.465303 0.466252 0.467201 0.46815 0.469098 0.470047 0.470997 0.471945 0.472894 0.473843 0.474792 0.475741 0.476691 0.48834 0.488076 0.487812 0.487548 0.487285 0.487021 0.486757 0.486493 0.487087 0.488033 0.50367 0.503414 0.503157 0.5029 0.502644 0.502387 0.50213 0.501874 0.501617 0.50136 0.501104 0.500847 0.50059 0.501279 0.517184 0.516934 0.516685 0.517287 0.517946 0.532188 0.532817 0.515435 0.515185 0.514935 0.514686 0.514436 0.514186 0.514526 0.515471 0.546243 0.546243 0.546242 0.546241 0.573095 0.572869 0.528294 0.528051 0.527807 0.527564 0.52732 0.527077 0.527773 0.542164 0.541927 0.541689 0.541452 0.541215 0.540978 0.54074 0.540503 0.540266 0.540029 0.539792 0.539555 0.540072 0.553961 0.55373 0.553498 0.553267 0.553036 0.552804 0.552573 0.552342 0.55211 0.551879 0.551648 0.551425 0.552372 0.565669 0.566256 0.57832 0.578099 0.577879 0.564063 0.563837 0.563611 0.561783 0.561582 0.561381 0.562086 0.563036 0.563985 0.564934 0.565884 0.575233 0.575012 0.574791 0.574571 0.57435 0.57413 0.574134 0.575079 0.599018 0.598807 0.598596 0.580141 0.5799 0.57966 0.580116 0.581065 0.582014 0.582962 0.58549 0.596701 0.59649 0.596279 0.596069 0.595858 0.595648 0.592664 0.592582 0.5925 0.593398 0.594347 0.595297 0.596246 0.597194 0.598143 0.599092 0.600041 0.60099 0.601938 0.602887 0.603835 0.604784 0.605733 0.606683 0.607632 0.615116 0.614914 0.614713 0.614511 0.614309 0.614821 0.625025 0.617263 0.617085 0.617121 0.61807 0.619019 0.619967 0.623644 0.623447 0.624283 0.633754 0.63356 0.627823 0.627602 0.627557 0.628506 0.629455 0.630404 0.632797 0.66173 0.661549 0.661367 0.641752 0.641562 0.641373 0.641183 0.640994 0.641312 0.650546 0.650361 0.650175 0.64999 0.649804 0.649618 0.649433 0.649247 0.649829 0.667668 0.66749 0.65809 0.657908 0.657726 0.657544 0.657362 0.657397 0.66624 0.666061 0.665882 0.665704 0.665525 0.665347 0.664456 0.664293 0.664561 0.665511 0.666462 0.673209 0.673033 0.672858 0.672683 0.672537 0.720294 0.675534 0.675383 0.675232 0.675948 0.676897 0.677847 0.725624 0.725469 0.725314 0.725388 0.729427 0.730279 0.719003 0.718518 0.718342 0.718166 0.71799 0.717814 0.730571 0.730419 0.723455 0.7233 0.716936 0.71676 0.716585 0.716409 0.716234 0.716088 0.716315 0.716541 0.716768 0.721749 0.72236 0.728284 0.728131 0.727979 0.727827 0.727674 0.727522 0.727369 0.712909 0.712724 0.712954 0.713904 0.714851 0.71958 0.719425 0.71927 0.719845 0.725844 0.721836 0.721671 0.722443 0.723391 0.725523 1 0.731459 0.731309 0.731159 0.731009 0.7312 0.737192 0.737044 0.736896 0.736749 0.736601 0.736876 0.737582 0.737623 0.738572 0.742166 0.74202 0.742553 0.743355 0.743318 0.744267 0.786549 0.786531 0.787382 1 0.789906 0.789778 0.789651 0.789523 0.789803 0.79401 0.793884 0.785195 0.785056 0.784918 0.784779 0.78464 0.793128 0.793002 0.792876 0.787992 0.787865 0.787737 0.783671 0.783532 0.783394 0.783255 0.783179 0.783462 0.791618 0.791492 0.791366 0.79124 0.791114 0.790988 0.790862 0.790736 0.790611 0.781347 0.781273 0.78222 0.785313 0.785185 0.785582 0.786017 0.789603 0.789478 0.789862 1 1 1 1 1 1 1 1 1 1 1 1 1 1 1 1 1 1 1 1 1 1 1 1 1 1 1 1 1 1 1 1 1 1 1 1 1 1 1 1 1 1 1 1 1 1 1 1 1 1 1 1 1 1 1 1 1 1 1 1 1 1 1 1 1 1 1 1 1 1 1 1 1 1 1 1 1 1 1 1 1 1 1 1 1 1 1 1 1 1 1 1 1 1 1 1 1 1 1 1 1 1 1 1 1 1 1 1 1 1 1 1 1 1 1 1 1 1 1 1 1 1 1 1 1 1 1 1 1 1 1 1 1 1 1 1 1 1 1 1 1 1 1 1 1 1 1 1 1 1 1 1 1 1 1 1 1 1 1 1 1 1 1 1 1 1 1 1 1 1 1 1 1 1 1 1 1 1 1 1 1 1 1 1 1 1 1 1 1 1 1 1 1 1 1 1 1 1 1 1 1 1 1 1 1 1 1 1 1 1 1 1 1 1 1 1 1 1 1 1 1 1 1 1 1 1 1 1 1 1 1 1 1 1 1 1 1 1 1 1 1 1 1 1 1 1 1 1 1 1 1 1 1 1 1 1 1 1 1 1 1 1 1 1 1 1 1 1 1 1 1 1 1 1 1 1 1 1 1 1 1 1 1 1 1 1 1 1 1 1 1 1 1 1 1 1 1 1 1 1 1 1 1 1 1 1 1 1 1 1 1 1 1 1 1
1 1 1 1 1 1 1 1 1 1 1 1 1 1 1 1 1 1 1 1 1 1 1 1 1 1 1 1 1 1 1 1 1 1 1 1 1 1 1 1 1 1 1 1 1 1 1 1 1 1 1 1 1 1 1 1 1 1 1 1 1 1 1 1 1 1 1 1 1 1 1 1 1 1 1 1 1 1 1 1 1 1 1 1 1 1 1 1 1 1 1 1 1 1 1 1 1 1 1 1 1 1 1 1 1 1 1 1 1 1 1 1 1 1 1 1 1 1 1 1 1 1 1 1 1 1 1 1 1 1 1 1 1 1 1 1 1 1 1 1 1 1 0.352465 0.353307 0.354149 0.35499 0.351189 0.351189 0.35119 0.35119 0.35119 0.35119 0.35119 0.351191 0.351191 0.351191 0.35119 0.35119 0.35119 0.35119 0.35119 0.35119 0.351189 0.351189 0.351189 0.351189 0.351189 0.351189 0.351189 0.351188 0.351188 0.351188 0.351188 0.351188 0.351188 0.351187 0.351187 0.351187 0.351187 0.351187 0.351187 0.351187 0.351186 0.351186 0.351186 0.351186 0.351186 0.351186 0.351186 0.351185 0.351185 0.351185 0.351185 0.351185 0.351185 0.351185 0.351184 0.351184 0.351184 0.351184 0.351184 0.351184 0.351183 0.351183 0.351183 0.351183 0.351183 0.351183 0.351183 0.351182 0.351182 0.351182 0.351182 0.351182 0.351182 0.351181 0.351181 0.351181 0.351181 0.351181 0.351181 0.351181 0.35118 0.35118 0.35118 0.35118 0.35118 0.35118 0.35118 0.351179 0.351179 0.351179 0.351179 0.351179 0.351179 0.351178 0.351178 0.351178 0.351178 0.351178 0.351178 0.351178 0.351177 0.351177 0.351177 0.351177 0.351178 0.351179 0.35118 0.351181 0.351179 0.351177 0.351174 0.351172 0.35128 0.352237 0.353194 0.354151 0.355108 0.356065 0.357022 0.357979 0.358936 0.359893 0.36085 0.361807 0.362764 0.363721 0.364678 0.365635 0.366592 0.367549 0.368506 0.369463 0.37042 0.371377 0.372334 0.373291 0.374248 0.375205 0.376162 0.377119 0.378076 0.379033 0.37999 0.380947 0.381904 0.382861 0.383818 0.384775 0.385732 0.386689 0.387646 0.388603 0.38956 0.390517 0.391474 0.392431 0.393388 0.394345 0.395302 0.396259 0.397216 0.398173 0.39913 0.400087 0.401044 0.402001 0.402958 0.403915 0.404872 0.405829 0.406786 0.407743 0.4087 0.409656 0.410613 0.41157 0.412527 0.413484 0.414441 0.415398 0.422529 0.423478 0.424427 0.425376 0.426324 0.427272 0.428221 0.442648 0.44236 0.442072 0.441783 0.441495 0.441207 0.440919 0.440631 0.440343 0.440055 0.440647 0.441592 0.46015 0.45987 0.45959 0.459311 0.459031 0.458751 0.458472 0.458192 0.457912 0.45236 0.4521 0.45184 0.451944 0.452892 0.453841 0.454789 0.455738 0.475281 0.475009 0.474738 0.474466 0.463654 0.463258 0.462858 0.463329 0.464278 0.465226 0.466175 0.467124 0.468073 0.469021 0.46997 0.47092 0.471868 0.472817 0.473766 0.474716 0.475665 0.488506 0.488242 0.487978 0.487714 0.48745 0.487187 0.486923 0.486659 0.486395 0.48701 0.487957 0.503575 0.503318 0.503062 0.502805 0.502548 0.502291 0.502035 0.501778 0.501521 0.501264 0.501008 0.500751 0.500494 0.501202 0.51714 0.517795 0.518453 0.532584 0.53273 0.533436 0.561974 0.515342 0.515092 0.514843 0.514593 0.514343 0.514093 0.51445 0.515395 0.560259 0.560891 1 1 0.573011 0.572785 0.528204 0.52796 0.527717 0.527473 0.52723 0.526986 0.527696 0.542076 0.541839 0.541601 0.541364 0.541127 0.54089 0.540652 0.540415 0.540178 0.53994 0.539703 0.539466 0.539995 0.553875 0.553644 0.553412 0.553181 0.55295 0.552718 0.552487 0.552256 0.552024 0.551793 0.551562 0.551349 0.552295 0.578679 0.578458 0.578238 0.578017 0.577797 0.563979 0.563753 0.563527 0.562353 0.562152 0.56195 0.562009 0.562958 0.563908 0.564857 0.565807 0.575151 0.57493 0.574709 0.574489 0.574269 0.574048 0.574058 0.575003 0.598939 0.598729 0.598518 0.57943 0.579189 0.57909 0.580039 0.580988 0.581937 0.582885 0.585413 0.596622 0.596412 0.596201 0.59599 0.59578 0.595569 0.592463 0.592233 0.592372 0.593321 0.59427 0.59522 0.596169 0.597118 0.599024 0.599439 0.599964 0.600913 0.604901 0.604695 0.605282 0.607738 0.605656 0.606606 0.607555 0.615041 0.614839 0.614638 0.614436 0.614234 0.614745 0.624952 0.617797 0.617619 0.617441 0.617993 0.618942 0.61989 0.620839 0.623373 0.624207 0.633682 0.627254 0.627033 0.626811 0.62748 0.628429 0.629378 0.630327 0.63272 0.661663 0.661481 0.661299 0.641681 0.641492 0.641302 0.641113 0.640924 0.641235 0.650477 0.650292 0.650106 0.64992 0.649735 0.649549 0.649364 0.649178 0.649752 0.667602 0.667423 0.658022 0.65784 0.657658 0.657476 0.657294 0.65732 0.666173 0.665995 0.665816 0.665637 0.665459 0.66528 0.664807 0.664644 0.664484 0.665434 0.666384 0.673144 0.672968 0.672793 0.672618 0.67246 0.719981 0.720834 0.675948 0.675797 0.675871 0.67682 0.677769 0.678719 0.725412 0.725257 0.725318 0.729358 1 0.719606 0.71812 0.71777 0.717594 0.717418 0.717242 0.717066 0.730362 0.716715 0.716539 0.716363 0.716188 0.716012 0.715837 0.715979 0.716205 0.716432 0.716659 0.721847 0.721692 0.72838 0.728227 0.728075 0.727922 0.72777 0.727617 0.713442 0.712265 0.71208 0.711928 0.712878 0.713826 0.714774 0.719522 0.719367 0.719212 0.719768 0.721611 0.721446 0.721417 0.722366 0.725178 0.725447 0.744292 0.731403 0.731253 0.731103 0.730953 0.731123 0.737137 0.736989 0.736841 0.736694 0.736546 0.7368 0.737804 0.737666 0.738495 0.742112 0.741966 0.742476 0.743641 0.743508 0.74419 0.74514 0.786462 0.787314 1 0.789859 0.789731 0.789603 0.789476 0.789733 0.793963 0.793837 0.793711 0.784734 0.784596 0.784457 0.784319 0.78418 0.792956 0.79283 0.787945 0.787817 0.783487 0.783349 0.78321 0.783072 0.783042 0.783324 0.791697 0.791571 0.791445 0.791319 0.791193 0.791067 0.790942 0.790816 0.79069 0.781079 0.780937 0.781196 0.782143 0.785265 0.785138 0.785326 0.785941 0.789557 0.789431 0.789785 1 1 1 1 1 1 1 1 1 1 1 1 1 1 1 1 1 1 1 1 1 1 1 1 1 1 1 1 1 1 1 1 1 1 1 1 1 1 1 1 1 1 1 1 1 1 1 1 1 1 1 1 1 1 1 1 1 1 1 1 1 1 1 1 1 1 1 1 1 1 1 1 1 1 1 1 1 1 1 1 1 1 1 1 1 1 1 1 1 1 1 1 1 1 1 1 1 1 1 1 1 1 1 1 1 1 1 1 1 1 1 1 1 1 1 1 1 1 1 1 1 1 1 1 1 1 1 1 1 1 1 1 1 1 1 1 1 1 1 1 1 1 1 1 1 1 1 1 1 1 1 1 1 1 1 1 1 1 1 1 1 1 1 1 1 1 1 1 1 1 1 1 1 1 1 1 1 1 1 1 1 1 1 1 1 1 1 1 1 1 1 1 1 1 1 1 1 1 1 1 1 1 1 1 1 1 1 1 1 1 1 1 1 1 1 1 1 1 1 1 1 1 1 1 1 1 1 1 1 1 1 1 1 1 1 1 1 1 1 1 1 1 1 1 1 1 1 1 1 1 1 1 1 1 1 1 1 1 1 1 1 1 1 1 1 1 1 1 1 1 1 1 1 1 1 1 1 1 1 1 1 1 1 1 1 1 1 1 1 1 1 1 1 1 1 1 1 1 1 1 1 1 1 1 1 1 1 1 1 1 1 1 1 1 1
1 1 1 1 1 1 1 1 1 1 1 1 1 1 1 1 1 1 1 1 1 1 1 1 1 1 1 1 1 1 1 1 1 1 1 1 1 1 1 1 1 1 1 1 1 1 1 1 1 1 1 1 1 1 1 1 1 1 1 1 1 1 1 1 1 1 1 1 1 1 1 1 1 1 1 1 1 1 1 1 1 1 1 1 1 1 1 1 1 1 1 1 1 1 1 1 1 1 1 1 1 1 1 1 1 1 1 1 1 1 1 1 1 1 1 1 1 1 1 1 1 1 1 1 1 1 1 1 1 1 1 1 1 1 1 1 1 1 1 1 1 1 1 1 1 1 1 1 1 1 1 0.359336 0.359336 0.359337 0.359337 0.359338 0.359338 0.359339 0.359339 0.359337 0.359336 0.359336 0.359336 0.359336 0.359336 0.359336 0.359337 0.359337 0.359337 0.359337 0.359337 0.359337 0.359337 0.359338 0.359338 0.359338 0.359338 0.359338 0.359338 0.359338 0.359338 0.359339 0.359339 0.359339 0.359339 0.359339 0.359339 0.359339 0.35934 0.35934 0.35934 0.35934 0.35934 0.35934 0.35934 0.35934 0.35934 0.35934 0.359339 0.359339 0.359339 0.359339 0.359339 0.359339 0.359338 0.359338 0.359338 0.359338 0.359338 0.359338 0.359338 0.359337 0.359337 0.359337 0.359337 0.359337 0.359337 0.359336 0.359336 0.359336 0.359336 0.359336 0.359336 0.359336 0.359335 0.359335 0.359335 0.359335 0.359335 0.359335 0.359335 0.359334 0.359334 0.359334 0.359334 0.359334 0.359334 0.359333 0.359333 0.359333 0.359333 0.359333 0.359333 0.359333 0.359332 0.359332 0.359332 0.359332 0.359332 0.359332 0.359332 0.359331 0.359331 0.359331 0.359332 0.359333 0.359333 0.359332 0.35933 0.359328 0.359325 0.359323 0.359321 0.359816 0.360773 0.36173 0.362686 0.363643 0.3646 0.365557 0.366514 0.367471 0.368428 0.369385 0.370342 0.371299 0.372256 0.373213 0.37417 0.375127 0.376084 0.377041 0.377998 0.378955 0.379912 0.380869 0.381826 0.382783 0.38374 0.384697 0.385654 0.386611 0.387569 0.388526 0.389483 0.39044 0.391397 0.392354 0.393311 0.394268 0.395225 0.396182 0.397139 0.398096 0.399053 0.400009 0.400966 0.401923 0.40288 0.403837 0.404794 0.405751 0.406708 0.407665 0.408622 0.409579 0.410536 0.411493 0.41245 0.413407 0.414364 0.415321 0.416278 0.417235 0.418192 0.419149 0.420106 0.421063 0.42202 0.422977 0.430041 0.43099 0.441676 0.441388 0.4411 0.440812 0.440524 0.440236 0.439947 0.44057 0.441516 0.460046 0.459766 0.459486 0.459207 0.458927 0.458647 0.458368 0.458088 0.457808 0.452816 0.452556 0.452296 0.452036 0.452816 0.453764 0.454713 0.455661 0.47518 0.474908 0.461147 0.460751 0.460405 0.461354 0.462303 0.463252 0.464201 0.46515 0.466098 0.467047 0.467996 0.468945 0.469894 0.470843 0.471791 0.472741 0.47369 0.488936 0.488672 0.488408 0.488144 0.48788 0.487616 0.487352 0.487088 0.486824 0.48656 0.486297 0.486933 0.48788 0.503479 0.503223 0.502966 0.502709 0.502452 0.502196 0.501939 0.501682 0.501426 0.501169 0.500912 0.500656 0.500399 0.501125 0.518961 0.532981 0.532737 0.532494 0.532251 0.53294 0.561888 0.51525 0.515 0.51475 0.5145 0.51425 0.514 0.514373 0.515318 0.57409 0.57495 1 1 0.544123 0.543886 0.528113 0.52787 0.527626 0.527383 0.527139 0.526896 0.527619 0.541988 0.541751 0.541513 0.541276 0.541039 0.540802 0.540564 0.540327 0.540089 0.539852 0.539615 0.539378 0.539918 0.553789 0.553558 0.553326 0.553095 0.552864 0.552632 0.552401 0.55217 0.551938 0.551707 0.551476 0.551272 0.552219 0.578597 0.578376 0.578156 0.577935 0.577715 0.563895 0.563669 0.563443 0.563217 0.562721 0.56252 0.562319 0.562881 0.563831 0.56478 0.565729 0.566679 0.574848 0.574628 0.574407 0.574187 0.573966 0.573982 0.574927 0.598861 0.598651 0.57896 0.578719 0.578478 0.579014 0.579962 0.580911 0.58186 0.584437 0.585336 0.596544 0.596333 0.596123 0.595912 0.595701 0.592119 0.591889 0.591659 0.592295 0.593244 0.594193 0.595142 0.596091 0.59704 0.605649 0.605443 0.605237 0.605031 0.604825 0.604619 0.605205 0.605374 0.605579 0.606528 0.607478 0.608427 0.614765 0.614563 0.614361 0.614159 0.614668 0.624879 0.624681 0.618152 0.617974 0.617916 0.618865 0.619814 0.620762 0.6233 0.624129 0.634507 0.626463 0.626241 0.626454 0.627403 0.628352 0.629301 0.632257 0.632644 0.661595 0.661413 0.661232 0.641611 0.641421 0.641232 0.641043 0.640853 0.641158 0.669143 0.650223 0.650037 0.649851 0.649666 0.64948 0.649295 0.649109 0.649675 0.667535 0.667357 0.657955 0.657773 0.657591 0.657409 0.657227 0.657244 0.666107 0.665928 0.66575 0.665571 0.665393 0.665214 0.665035 0.664857 0.664833 0.665357 0.666307 0.667256 0.672903 0.672728 0.672553 0.672384 0.719913 0.719667 0.676514 0.676363 0.676211 0.676743 0.677692 0.678641 0.679591 0.725199 0.725248 0.729289 1 0.731372 0.718723 0.718714 0.718539 0.718364 0.718188 0.718013 0.717321 0.716847 0.717073 0.717298 0.717138 0.716963 0.716788 0.716096 0.716322 0.715036 0.714878 0.714721 0.714563 0.714406 0.714248 0.714091 0.713077 0.712888 0.7127 0.712511 0.711435 0.71125 0.711852 0.712801 0.713749 0.714697 0.719465 0.71931 0.719155 0.719692 0.721221 0.721055 0.72134 0.722289 0.725121 0.725369 0.737968 0.731347 0.731197 0.731047 0.730897 0.731046 0.737082 0.736934 0.736787 0.736639 0.736491 0.736723 0.738025 0.737888 0.738419 0.739367 0.741912 0.742399 0.743927 0.743794 0.744113 0.745062 0.786393 0.787245 1 0.789811 0.789684 0.789556 0.789428 0.789664 0.793916 0.79379 0.793664 0.784737 0.784274 0.784135 0.783997 0.783858 1 0.788025 0.787897 0.783304 0.783166 0.783027 0.782888 0.782904 0.783186 0.787004 0.786876 1 1 1 1 1 1 1 1 0.780669 0.780527 0.781119 0.782067 0.785218 0.78509 0.785071 0.785864 0.78951 0.789384 0.789708 1 1 1 1 1 1 1 1 1 1 1 1 1 1 1 1 1 1 1 1 1 1 1 1 1 1 1 1 1 1 1 1 1 1 1 1 1 1 1 1 1 1 1 1 1 1 1 1 1 1 1 1 1 1 1 1 1 1 1 1 1 1 1 1 1 1 1 1 1 1 1 1 1 1 1 1 1 1 1 1 1 1 1 1 1 1 1 1 1 1 1 1 1 1 1 1 1 1 1 1 1 1 1 1 1 1 1 1 1 1 1 1 1 1 1 1 1 1 1 1 1 1 1 1 1 1 1 1 1 1 1 1 1 1 1 1 1 1 1 1 1 1 1 1 1 1 1 1 1 1 1 1 1 1 1 1 1 1 1 1 1 1 1 1 1 1 1 1 1 1 1 1 1 1 1 1 1 1 1 1 1 1 1 1 1 1 1 1 1 1 1 1 1 1 1 1 1 1 1 1 1 1 1 1 1 1 1 1 1 1 1 1 1 1 1 1 1 1 1 1 1 1 1 1 1 1 1 1 1 1 1 1 1 1 1 1 1 1 1 1 1 1 1 1 1 1 1 1 1 1 1 1 1 1 1 1 1 1 1 1 1 1 1 1 1 1 1 1 1 1 1 1 1 1 1 1 1 1 1 1 1 1 1 1 1 1 1 1 1 1 1 1 1 1 1 1 1 1 1 1 1 1 1 1 1 1 1 1 1 1 1 1 1 1 1
